# .PCD v0.7 - Point Cloud Data file format
VERSION 0.7
FIELDS x y z
SIZE 4 4 4
TYPE F F F
COUNT 1 1 1
WIDTH 1567
HEIGHT 1
VIEWPOINT 0 0 0 1 0 0 0
POINTS 1567
DATA ascii
-46.635422 -9.4224749 2.4158895
-46.238289 -8.7199574 2.4122539
35.324352 -8.7208242 2.1456413
35.624126 -8.6803141 2.1508284
-46.566513 -8.1664162 2.4204643
-46.249573 -8.4621792 2.4136372
29.281322 -8.0356121 2.0461047
34.906982 -8.2334366 2.140147
-46.90303 -7.7772951 2.4281235
7.7723327 -7.537674 2.3952193
8.8243523 -7.7985487 2.4650669
27.238247 -7.672368 2.0129297
27.985302 -7.8199644 2.0250185
28.139698 -7.7714548 2.0277107
34.80101 -7.8554802 2.1396239
-47.111305 -7.3806109 2.4336858
-46.81411 -7.3248148 2.4288692
0.15625662 -7.1065111 2.255213
1.2479155 -7.1421828 2.2358539
1.8091123 -7.1434417 2.3638713
2.2706244 -7.1751342 2.4269152
2.5257866 -7.1632252 2.3625894
3.8241243 -7.0269713 2.2270832
5.8645897 -7.4280128 2.3085885
33.945553 -7.052834 2.127965
34.03318 -7.1843357 2.1289682
-47.042953 -6.6531115 2.4362984
-46.657478 -6.8565502 2.4285908
3.8438296 -6.7723389 2.2074571
33.931129 -6.8701372 2.128413
34.071507 -6.6149402 2.1318104
-46.854843 -6.2836437 2.4350522
11.92415 -6.0076518 2.1686776
12.828698 -6.0902414 2.2100117
34.325829 -6.4373636 2.1368778
3.7522404 -5.6613722 2.1192048
4.4345226 -5.8227005 2.1462274
8.1544018 -5.639462 2.0084417
8.9461555 -5.5518107 2.3435106
9.1400576 -5.5597897 2.2939744
11.204208 -5.6015224 2.1286771
11.854766 -5.7772923 2.1607137
12.643001 -5.8496203 2.1969278
34.920528 -5.6364775 2.1505678
36.129356 -5.7427583 2.1708968
3.0702262 -5.1451693 2.2683218
3.8042963 -5.2430158 2.0876498
4.2332721 -5.0754051 2.3449292
4.6751609 -5.1831813 2.1051283
5.2864423 -5.245008 2.1308315
5.8994184 -5.1601114 2.2947257
6.1481547 -5.2049403 2.3632028
7.3790789 -5.3567762 2.2382534
7.5706844 -5.3561225 2.249078
8.1383429 -5.4468446 2.0019894
9.2255239 -5.4852462 2.0441508
11.921092 -5.2019625 2.1519599
12.153199 -5.1085811 2.1607006
34.285393 -5.2876081 2.1412442
-49.535824 -4.8110323 2.4898279
-49.425159 -4.7953081 2.4880028
0.43951926 -4.5229397 2.3086746
0.55220842 -4.5300269 2.2405486
1.203073 -4.7091594 2.2359807
1.9834738 -4.8215666 2.0440705
2.1172047 -4.8918509 2.235847
2.6940718 -4.8620772 2.2573333
3.1262586 -4.9381766 2.2454042
3.859884 -4.9881711 2.0690346
4.3075647 -4.967896 2.2299447
11.830143 -4.9910288 2.1438453
12.227449 -4.8367248 2.1592357
12.771507 -4.867599 2.1849322
13.29942 -4.7221684 2.2074282
33.149677 -4.7534013 2.1242118
-46.732201 -4.1842031 2.4451213
0.47307682 -4.47644 2.2385244
0.55108088 -4.4651499 2.3469183
12.306355 -4.2439785 2.1533921
12.573938 -4.0972409 2.1639543
13.50346 -4.0665207 2.2083204
33.113483 -4.4271765 2.1251996
12.671822 -3.7218239 2.1638384
34.996181 -3.6813142 2.1618228
35.304649 -3.7244925 2.1669502
12.421532 -3.2615192 2.1463244
12.830794 -3.2834482 2.1667125
13.1617 -3.23439 2.1826081
13.783849 -3.0560961 2.2120395
16.146801 -3.0317178 2.3311839
27.686428 -3.2869072 2.0371079
33.767994 -3.0930486 2.1438243
34.724617 -3.3158429 2.1591787
35.05629 -3.1247542 2.1660671
-46.382622 -2.6992245 2.4486036
6.444428 -2.6212394 2.1942546
6.5097013 -2.5126138 2.0325718
9.9722824 -2.8555033 2.165833
12.726023 -2.9009957 2.1579158
13.803714 -2.8470638 2.2115138
16.106903 -2.8898869 2.3284507
33.099361 -2.6913998 2.1345618
-0.092987359 -2.041451 2.2317843
0.028324785 -2.1525052 2.2587311
6.452105 -2.4565687 2.3334494
6.6006927 -2.4598472 2.1974747
33.158924 -2.4778154 2.1368961
33.735126 -2.2684047 2.1482534
35.348186 -2.1166418 2.1773765
35.504539 -2.0131493 2.1807773
-21.085011 -1.6397712 2.0167234
-20.958223 -1.5044894 2.015379
-13.899352 -1.6066037 2.4713447
-9.0632076 -1.8021121 2.2213426
-0.1318953 -1.996314 2.0460343
35.438396 -1.7773052 2.1811717
35.60371 -1.5566452 2.1855345
43.364132 -1.7517743 2.319931
48.779362 -1.729929 2.4148259
-32.445782 -1.0084325 2.2181602
-28.029392 -1.1887491 2.1401832
-27.942745 -1.186712 2.1386862
-21.077892 -1.2284322 2.019237
-20.959028 -1.3828294 2.0161719
-14.039057 -1.3289998 2.4790857
-13.893514 -1.43216 2.4713109
35.80434 -1.3383145 2.1905327
41.988071 -1.1318367 2.3001812
42.074184 -1.2735995 2.3006854
51.447239 -1.1808631 2.465425
-28.105824 -0.92754269 2.1433172
41.961414 -0.99290872 2.3007057
-20.643223 -0.23280357 2.0185843
-20.502768 0.053485692 2.0182512
-20.46229 0.29408816 2.0193782
-20.424334 0.73461556 2.0221775
-20.584572 1.2584935 2.0292594
-20.482836 1.0955826 2.0261323
-32.688744 1.8563596 2.2446995
-32.687256 2.0996091 2.2467558
32.010063 4.4101405 2.1726933
33.410995 4.4934735 2.1978655
33.840454 4.3277144 2.2036726
34.79464 4.159379 2.2186084
35.031269 4.0143604 2.2213132
14.090915 4.9297614 2.3061435
31.285393 4.876605 2.164928
31.769634 4.6360688 2.1708291
7.3562675 5.1546588 2.2370155
7.5345297 5.0559773 2.2520714
13.982409 5.1990628 2.3082185
14.00157 5.1271868 2.3071351
31.580503 5.180078 2.1732321
32.016762 5.4588747 2.1837435
-7.3731656 5.9816418 2.2574623
0.7842232 5.6109924 2.2327251
30.214977 5.8024883 2.1564341
32.003071 5.5624576 2.1846213
33.137352 5.9238992 2.2081084
-7.1956873 6.1278286 2.2543519
-0.43541396 6.478714 2.1960785
20.837208 6.4023132 2.0043268
21.59767 6.4998159 2.018295
23.871277 6.4164767 2.0554152
24.062475 6.1469607 2.0553124
29.865969 6.327652 2.1563759
30.184992 6.0974455 2.1592238
30.520111 6.0134916 2.1640346
32.72298 6.1222878 2.2031391
33.305038 6.1202369 2.2131424
-42.449493 6.8885837 2.461257
-41.715622 6.9335351 2.4490879
-28.255787 6.9617977 2.2188292
-0.45431256 6.5329132 2.3793447
16.415321 6.8807192 2.4736972
22.691198 6.7686014 2.0400791
23.851334 6.6888022 2.0585172
-41.508499 7.076045 2.4470019
-41.379841 7.3676376 2.4478438
-35.562912 7.330677 2.347681
-28.200388 7.1746316 2.2203312
15.803388 7.3225541 2.4584975
16.425989 7.0897851 2.4804938
16.520735 7.2552433 2.4900262
29.942089 7.1461878 2.1672566
30.339306 7.3896823 2.1769316
-40.908829 7.7475543 2.4437885
-35.587402 7.5413871 2.3504066
15.911422 7.7839522 2.478467
16.204693 7.6389174 2.4873495
19.65464 7.7829165 2.004158
30.461496 7.5756345 2.1812534
-40.828129 8.0457735 2.4456096
15.791585 8.1692619 2.4859314
-40.572559 8.6228237 2.4475479
20.972168 8.6463661 2.0380862
21.184378 8.6259012 2.0411859
-42.181801 9.1702127 2.4811115
-40.631428 9.1854782 2.454834
30.594818 9.0789986 2.2023361
20.343561 9.507659 2.0413156
-40.454189 10.157653 2.4629588
18.750057 10.832128 2.038868
39.840958 10.590403 2.3771138
-10.040966 11.793172 2.0038874
-9.9329453 11.93754 2.0053267
14.832373 11.829773 2.0027447
-9.66327 12.184547 2.0068071
-9.30513 12.347453 2.0056291
20.672781 12.19521 2.0907319
-14.524834 12.6141 2.080142
-14.285681 12.755733 2.079329
-13.972801 12.884847 2.0773103
-9.2151232 12.727043 2.0122495
-24.145525 13.380864 2.2373555
-14.151258 13.33878 2.0881267
-12.564608 13.46871 2.0692046
-9.0709095 13.038401 2.016916
-7.8546882 13.466119 2.0121634
-27.473436 13.978209 2.2988586
-23.901815 13.545975 2.2361059
-14.075902 13.605153 2.0920379
-12.562899 13.55932 2.0709243
-7.7678461 13.683573 2.0159121
-27.37269 14.184896 2.300374
-18.142511 14.240265 2.1607304
-17.907022 14.445546 2.1609457
-8.64853 14.21302 2.0367942
-7.6571727 14.411778 2.0305891
-7.4771447 14.065292 2.0211585
1.7836576 14.104554 2.4435558
-12.256588 14.509026 2.0855486
-10.666473 14.868763 2.073482
-10.223531 14.697568 2.0647731
1.3232098 14.79229 2.4865663
1.6089888 14.880696 2.4907765
2.1146998 14.960318 2.4943781
-8.5691509 15.234155 2.0579658
-8.4072828 15.17038 2.0548949
-7.8195148 15.166224 2.0488257
0.92089999 15.44485 2.0007248
1.3943031 15.462022 2.0004346
1.6349822 15.007811 2.4983304
2.2643232 15.025799 2.4981437
12.344162 15.490891 2.0521069
12.747033 15.473605 2.0556533
13.271973 15.447283 2.0603526
13.774653 15.422971 2.0650437
14.25029 15.400119 2.0696366
14.740227 15.375076 2.0744808
15.248218 15.355137 2.0797787
15.76891 15.327228 2.0852017
16.261845 15.299408 2.0904386
16.633799 15.279037 2.0944843
-27.8603 15.700837 2.3313072
0.83847654 15.80632 2.0099785
1.1635376 15.676936 2.0061734
1.8044778 15.598332 2.0034792
2.4603896 15.543624 2.0018191
2.6713378 15.83901 2.0093045
4.4220529 15.906901 2.0131378
4.7431469 15.865594 2.0128703
5.2347107 15.844849 2.0137358
5.7285366 15.824397 2.014883
6.2199597 15.768618 2.0154092
6.7308745 15.778488 2.0179112
7.2398548 15.746163 2.0196338
7.7618704 15.7213 2.0218809
8.2597284 15.694349 2.0241973
8.7219982 15.632778 2.0256915
9.2274065 15.648153 2.0295389
9.7261162 15.62128 2.0325584
10.235518 15.597706 2.0359623
10.755494 15.570096 2.0395842
11.262323 15.548541 2.0434499
11.738974 15.518114 2.0470419
12.095154 15.508118 2.0501225
-22.010695 16.036539 2.2482162
-21.705051 16.020987 2.2434711
-21.491858 16.122246 2.2421107
0.63569134 16.080276 2.0172565
2.372041 16.083845 2.0154731
2.6776977 16.285622 2.0205932
-16.356308 16.967081 2.1863022
-0.065048337 16.838276 2.0379305
0.17352939 16.884811 2.0385008
2.9079137 16.665871 2.030278
4.4148874 16.773626 2.0349138
-21.431437 17.230343 2.2607257
-17.184462 17.329994 2.2041631
-16.328598 17.059315 2.1877222
0.2381261 17.064716 2.0428591
-16.800037 17.654919 2.2053974
-9.7946558 17.812206 2.1269894
-9.2458601 17.823919 2.1218245
4.4603086 17.665934 2.057451
-34.794064 18.225296 2.4786868
-11.109827 18.484463 2.1551936
-10.476406 18.403721 2.1468887
-9.1210737 18.347101 2.132313
-8.7176733 18.41518 2.1300831
-8.1933289 18.328163 2.1233547
-7.713429 18.287325 2.1182103
-7.2195954 18.28186 2.1138995
-6.7318206 18.255865 2.1093175
-6.3629041 18.378159 2.109283
-20.164701 18.816137 2.2721732
-19.686773 18.813148 2.2656872
-19.198942 18.79423 2.2588217
-14.606219 18.655418 2.198045
-13.229979 18.561152 2.1800501
-12.727116 18.574961 2.1746621
-12.415657 18.586559 2.171442
-11.257507 18.548059 2.1581242
-9.1617088 18.500559 2.1361382
-6.2455249 18.770998 2.1176164
4.5113745 18.694225 2.0834239
-6.2219543 19.214869 2.1279132
3.4261985 19.381237 2.0992088
3.7722378 19.438055 2.1010182
4.0574017 19.436018 2.1013341
-6.2093453 19.711472 2.139575
3.2782106 19.716116 2.1075444
3.7470617 19.72982 2.1083381
4.3930998 19.805073 2.1111739
4.563035 19.796629 2.1112669
-6.1801677 20.190386 2.1507392
3.1564674 20.045282 2.1157732
-6.1637778 20.718647 2.1632068
-6.1431403 21.269339 2.1762226
-6.0813799 21.852827 2.1897991
-6.0596066 22.225239 2.198607
-6.3653555 23.468819 2.2304621
-5.2450566 27.325232 2.3182461
-4.989737 27.254105 2.3152869
-5.4791684 27.90847 2.333699
-4.9921765 27.627026 2.3244812
-6.2592254 29.449495 2.3753514
-4.8842053 29.177025 2.3622448
-6.2989955 29.589767 2.3789921
-4.6034951 29.797554 2.3764269
-4.4505501 30.044012 2.3819211
-5.6826682 31.441933 2.4216599
-5.631228 31.620892 2.4258528
-5.3545542 31.67341 2.425966
-4.7774358 31.895655 2.4291334
-4.5929871 32.12022 2.4340048
-4.4151683 32.376751 2.4397187
-4.2618165 32.729748 2.447953
5.2940779 32.640617 2.4360332
-6.2594075 33.133862 2.4659691
-4.1097836 33.13562 2.4575305
-6.5781007 33.830536 2.4845829
-8.3234749 -28.148619 2.9999561
-7.722558 -28.19578 2.9910686
-7.2815104 -28.219416 2.9844477
-6.6776657 -28.224327 2.9747298
-6.3542233 -28.257833 2.9710693
-12.579261 -23.703007 2.9243844
-12.399884 -23.881392 2.9260035
-12.575367 -23.422272 2.9140153
-7.4122634 -22.778687 2.7631178
20.013506 -9.30758 2.5951982
20.866665 -8.8794613 2.6274841
28.707178 -8.0724974 2.9987535
27.807892 -7.6330299 2.9502096
0.27596468 -7.1077952 2.6010888
1.3219239 -7.1206288 2.6007404
1.6905347 -7.1360097 2.696331
2.2533937 -7.1512804 2.6832356
3.3408005 -7.0196557 2.7532558
3.9324086 -7.273097 2.5251236
4.1774726 -7.3107271 2.5352607
5.7389474 -7.3570256 2.6194372
6.0099936 -7.4008522 2.6148081
10.865447 -7.1147661 2.9447877
11.314383 -7.2765584 2.9978166
4.4386897 -6.649024 2.730562
4.5174046 -6.693202 2.7402341
7.5730848 -6.9815416 2.6664414
9.9779701 -6.5266209 2.820291
10.895477 -6.753417 2.9209511
13.847929 -6.689692 2.7368207
10.466936 -6.4578485 2.859736
10.576539 -6.3080487 2.8592062
12.158827 -6.0893607 2.999826
6.4212432 -5.5621667 2.9668167
6.5999923 -5.5871043 2.9460003
7.2806826 -5.6692524 2.8010275
7.7124481 -5.6852918 2.8055828
8.0004025 -5.7771378 2.8858962
8.7313147 -5.608274 2.6389668
9.0931168 -5.7567792 2.6824355
11.334464 -5.6118846 2.6501372
11.767739 -5.589849 2.67153
12.227005 -5.7860217 2.5817473
12.836817 -5.8294883 2.6286857
2.749547 -5.0419583 2.8477311
3.7359207 -5.1081586 2.8916948
4.2598476 -5.2512178 2.8351526
4.5373812 -5.3038793 2.8762143
5.3006577 -5.2549157 2.810149
5.7752233 -5.3852701 2.8100545
6.1658726 -5.3860874 2.8030057
6.7980227 -5.417697 2.7252264
7.3033104 -5.4150996 2.5045216
7.7400808 -5.4945173 2.5459509
11.316173 -5.2818861 2.8236294
11.640306 -5.1437845 2.8908043
12.368254 -5.1670876 2.6121657
12.625024 -5.2066536 2.5901303
0.67008144 -4.5793595 2.6245735
1.3045362 -4.6904259 2.7391098
1.7545167 -4.7715859 2.6074843
2.0320003 -4.8553452 2.6161432
2.5871065 -4.8914523 2.6831477
11.791662 -4.9589114 2.8964443
12.219785 -4.77283 2.6500943
11.907934 -4.1771426 2.8697102
12.239634 -4.272584 2.6108723
12.617891 -4.2353816 2.7830486
13.30437 -4.1072545 2.6096799
12.271084 -3.7278407 2.8905468
12.680269 -3.9199629 2.6522596
13.20603 -3.7096934 2.5917625
27.913212 -3.5617981 2.9379327
28.008181 -3.7136886 2.9429288
12.85076 -3.2271326 2.5515609
13.300861 -3.4728985 2.5940046
20.676165 -3.1617978 2.5635006
27.956434 -3.3867948 2.9401393
28.646544 -3.3072314 2.9759743
6.4359269 -2.597132 2.7368367
6.5068808 -2.7251883 2.9607017
9.9819088 -2.872463 2.8880477
10.00932 -2.8663986 2.7457728
13.785136 -2.8480115 2.6221268
20.730021 -2.9428363 2.5657992
-8.9025803 -2.0670459 2.6245096
-0.082025163 -2.0343225 2.5679259
0.038271364 -2.1638424 2.5687435
6.4680109 -2.452384 2.7017024
6.5810781 -2.3578436 2.7213619
-21.044756 -1.5927818 2.8433695
-20.988068 -1.505154 2.8407078
-9.0478153 -1.6535494 2.6330497
-8.9677992 -1.8874271 2.6282206
-21.031815 -1.3060322 2.843725
-20.978508 -1.4258823 2.8404899
-9.1006527 -1.4752204 2.6362939
62.205124 -1.2294855 2.6534421
62.30518 -0.91939318 2.657475
62.58152 -0.7160697 2.6638269
24.309383 2.6780953 2.7869544
24.587255 3.6773293 2.8156664
-60.509895 4.3851032 2.7499878
-59.704769 4.1169958 2.7336335
19.850679 4.3576722 2.5829122
61.771816 4.2474942 2.690311
-60.459877 4.602747 2.7510619
14.07373 4.8709998 2.7374804
24.407415 4.7556772 2.8243461
54.458595 4.8740678 2.5682464
-60.548573 5.2724357 2.7586584
-60.471573 5.4878101 2.7592974
0.7557804 5.4673409 2.8595951
7.3752313 5.1771536 2.8520014
7.5422282 5.1005073 2.9044039
14.079586 5.0571151 2.7453089
54.224789 5.2148499 2.5673552
-60.544823 5.8150539 2.763593
-7.2952132 5.9377832 2.6471727
0.83579808 5.56953 2.6504409
13.803569 5.6184597 2.746798
54.638988 5.9723763 2.581789
55.543869 5.6940517 2.5948915
56.149906 5.9429021 2.6078329
-60.511322 6.2612929 2.7671838
-13.841515 6.3178601 2.576761
-7.1735158 6.1152406 2.647028
-0.39988717 6.4420481 2.9148326
23.800213 6.3028402 2.8239732
24.106071 6.1040201 2.8352101
-60.465824 6.695353 2.7705057
-0.41314363 6.5062981 2.7334695
19.896053 6.9675431 2.6447945
23.200653 6.796598 2.8048663
23.720613 6.5976262 2.8264437
-60.460358 7.2504187 2.7757468
-59.602692 7.168879 2.7601194
15.822997 7.4474144 2.9905174
21.842157 7.4265995 2.7525473
22.393091 7.3908529 2.7788901
22.86014 7.239397 2.798358
23.026466 7.0210867 2.8013744
-60.424778 7.8028064 2.7805157
-50.378376 7.6540895 2.6056631
15.783409 7.6154881 2.9957051
17.351845 7.7194858 2.5435281
21.729374 7.5375929 2.7498479
22.431173 7.5232954 2.7841134
-60.437439 8.2501392 2.7851591
16.219364 8.4549809 2.5150752
20.964857 8.4419994 2.7372866
16.412365 8.9224339 2.5399861
16.528574 8.8964291 2.544291
21.132494 8.7044134 2.752919
15.694337 9.393837 2.5253556
16.199734 9.1899595 2.5400722
20.661036 9.4967537 2.7543998
22.154547 9.3213348 2.8199065
15.686694 9.7601757 2.5388188
21.004034 9.5872431 2.7733412
-43.86166 10.087008 2.5200679
15.814887 10.093122 2.5570436
16.08959 10.401007 2.5806088
15.914604 10.671537 2.5838614
16.13077 10.614514 2.5906787
15.744644 11.290603 2.60186
16.150455 11.151166 2.6127951
-10.290787 11.864955 2.6084099
-9.7358732 11.837287 2.5857232
14.99367 11.808172 2.5937769
15.112038 11.677415 2.5927896
15.606239 11.717842 2.6140277
-10.824039 12.053676 2.637362
-9.6182337 12.124483 2.5938172
-9.2557373 12.371879 2.5913601
-12.580362 12.728269 2.7357841
-12.363675 12.852501 2.7321272
-11.740367 12.718632 2.7016373
-10.117037 12.820695 2.6433945
-9.1265287 12.729466 2.6028976
-8.8154392 12.806909 2.5953484
-6.5668797 12.766244 2.5184183
-6.4560456 12.862406 2.5198045
-12.363481 13.074265 2.7413251
-10.307766 13.179083 2.6664877
-7.6936898 13.294269 2.5804183
-7.4032722 13.402901 2.5763721
-6.7165618 13.081954 2.5388782
-6.2809081 13.171103 2.5301576
-9.5041866 13.973622 2.6739969
-9.1558323 13.814976 2.6544621
-8.9163342 13.867014 2.6487598
-8.3862514 13.799222 2.6276951
-7.343205 13.512307 2.5798819
-6.1339707 13.783102 2.5572639
-5.8471818 13.770062 2.5485268
19.574251 13.597098 2.8524985
-10.51717 14.225146 2.7215357
-9.9245701 14.347724 2.7062004
-9.2378616 14.121109 2.6718154
-8.7538109 14.053363 2.6521962
-8.2768879 14.097377 2.638613
1.8373208 14.078267 2.9206092
-16.848913 14.89512 2.9988396
-10.835535 14.654988 2.7527151
-10.347717 14.719047 2.7383819
-7.0207801 14.980448 2.6445389
-6.3335004 14.887393 2.6204083
2.1224279 14.820706 2.9903977
-7.2228351 15.119678 2.6575465
0.3492178 15.347052 2.5256016
0.81502998 15.20399 2.5138896
1.0649194 15.110055 2.5068388
1.8770955 15.235249 2.5113738
2.3861983 15.170865 2.5068033
2.5665054 15.348553 2.5174828
12.335417 15.491079 2.679569
12.756877 15.47346 2.6909568
13.245402 15.449964 2.7044442
13.754547 15.435107 2.7195055
14.270497 15.41182 2.7348454
14.598229 15.399212 2.7449386
-0.083785176 15.94444 2.5646768
0.24613683 15.744164 2.5500493
0.5556289 15.891896 2.5566652
1.8534725 15.770981 2.5436599
2.4903975 15.626076 2.5341945
2.8864739 15.899863 2.5509417
3.0293932 15.913461 2.5519638
4.4527121 15.891876 2.5565946
4.7226744 15.87324 2.5573952
5.2478442 15.845454 2.5601251
5.7348919 15.825546 2.5637982
6.2340899 15.801873 2.5681808
6.7377696 15.779561 2.5735042
7.2488804 15.754127 2.57956
7.7404141 15.725235 2.5858812
8.2399721 15.703831 2.5935237
8.7384682 15.65338 2.6002204
9.2357473 15.649198 2.6102154
9.7359838 15.624735 2.6198165
10.24192 15.594305 2.629895
10.732363 15.575228 2.6408575
11.236839 15.548721 2.6523943
11.7524 15.524324 2.664943
12.128432 15.505092 2.6743965
15.312818 15.893707 2.7926328
15.781818 15.858714 2.8068516
16.286085 15.873446 2.8250198
16.695213 15.808375 2.8364005
-0.23563199 16.147203 2.5780995
2.7810097 16.156166 2.5662646
3.1007657 16.474337 2.5858655
5.1834731 16.168152 2.5787208
-7.4832311 16.631922 2.7434466
2.7127767 16.547392 2.5897613
3.2216942 16.730591 2.6015513
4.4436078 16.502405 2.5930772
16.222666 16.704191 2.8622062
4.4854898 17.353798 2.6443186
17.69171 17.172577 2.9351454
18.254375 17.140205 2.953717
18.522991 17.134409 2.9631615
-36.786285 17.84684 2.5044632
-8.1454973 18.397024 2.8543239
-7.6002731 18.308247 2.8352773
-7.2119827 18.275827 2.823674
-6.7305522 18.261787 2.8110683
-6.3531399 18.368198 2.8079448
4.5419497 18.360065 2.7049346
-6.2139363 18.710388 2.823535
-6.1786218 19.219505 2.850872
-6.1450009 19.760561 2.880168
3.7474327 19.837866 2.7900298
4.1352863 19.889664 2.7946246
4.6116934 19.549463 2.7766113
-6.1222405 20.252495 2.9071083
3.7082558 20.104641 2.8059413
-6.0939555 20.764631 2.9351838
4.6784053 20.819294 2.8531024
-6.0618725 21.293098 2.9642241
-6.0325694 21.741238 2.988904
-7.243185 50.294407 2.8957813
-6.8833318 50.347538 2.8959389
-6.8648419 51.221531 2.9177032
-10.785542 -35.566238 3.3510664
-7.4972119 -30.044964 3.0644417
-7.4762635 -29.62681 3.0465634
-14.602659 -28.028233 3.1390934
-12.171171 -28.091969 3.0796063
-11.688472 -28.002867 3.0647354
-11.267737 -28.02556 3.055923
-10.7934 -28.041138 3.0458868
-10.264914 -28.067108 3.0354326
-9.9078007 -28.070368 3.0279975
-9.2343798 -28.1171 3.0161815
-8.7207708 -28.137283 3.0069807
-8.3369198 -28.183918 3.0016687
-17.247311 -27.672901 3.2017643
-16.735472 -27.769882 3.18993
-16.297476 -27.757782 3.1766882
-15.797426 -27.865665 3.1662261
-14.186485 -27.893082 3.1229379
-13.739545 -27.912905 3.1119423
-13.222462 -27.919086 3.0988946
-12.730289 -27.960205 3.0881364
-12.359152 -27.979721 3.0797904
-11.803624 -27.990925 3.0669675
-17.39399 -27.164646 3.188473
-17.384567 -26.749176 3.1738176
-17.580345 -26.149414 3.1594021
-17.424011 -26.417263 3.1636362
-20.103586 -25.51333 3.2217121
-19.668156 -25.650612 3.2112465
-19.148396 -25.586906 3.191679
-18.708971 -25.604347 3.1776485
-18.217871 -25.740383 3.1660447
-17.837313 -25.904394 3.1592753
-20.712694 -25.305847 3.2363434
-20.31859 -25.40242 3.2256348
-19.93178 -25.498486 3.2153487
-17.673702 -25.324757 3.1345716
-17.795755 -24.93754 3.1256542
-24.929441 -22.895798 3.3255858
-23.222485 -20.775076 3.2023513
-23.20871 -20.236841 3.1881838
-23.204504 -19.724689 3.1753297
-23.194208 -19.217176 3.1625795
-23.190025 -18.720812 3.1506143
-23.193108 -18.238268 3.1395175
-23.175774 -17.756783 3.1278381
-23.168272 -17.217806 3.1155601
-23.158365 -16.752359 3.1050634
-23.159872 -16.302467 3.0956483
-23.150351 -15.794328 3.0848045
-25.573339 -15.01863 3.179369
-25.272953 -15.049581 3.1661663
-24.81481 -15.045169 3.1451898
-24.269567 -15.052502 3.120568
-23.78397 -15.064125 3.0988398
-23.221581 -15.218026 3.0765641
37.277573 -7.7380362 3.4300218
10.320699 -7.1387992 3.2848642
10.891364 -7.0400229 3.3409984
11.133252 -7.0714984 3.3727334
36.989704 -7.2901292 3.413543
37.259033 -7.0963583 3.4266565
10.376455 -6.8808136 3.265085
10.788893 -6.6808085 3.2942834
11.412745 -6.8373437 3.3843827
30.022741 -6.9394741 3.056879
36.86816 -6.8231649 3.4057364
10.752685 -6.4069519 3.2638016
5.1505227 -5.5335288 3.0829036
6.6380701 -5.6979408 3.0109458
12.780064 -5.5219121 3.4538722
14.243604 -5.6495171 3.1957059
4.7800555 -5.3884544 3.0207653
5.0336552 -5.4598389 3.0571964
10.982916 -5.378828 3.2023838
11.250774 -5.2563291 3.2278917
12.860214 -5.1593685 3.0213082
13.059668 -5.1021023 3.0400081
11.317555 -4.8948827 3.2089989
11.84118 -4.8865933 3.2798517
12.011616 -4.7691998 3.2951264
12.865387 -4.779861 3.4154656
13.195174 -4.7395558 3.4596932
34.251411 -4.9022732 3.2670112
12.775617 -4.3694367 3.3773754
13.340906 -4.1924944 3.1970687
13.704031 -4.1352701 3.1548982
33.923946 -3.6795166 3.2500541
34.036682 -3.9201081 3.2557197
13.810108 -3.0173826 3.2539654
20.784077 -3.0935311 3.2212563
33.633377 -3.0972707 3.2357402
34.167004 -3.2992897 3.2632263
34.924404 -3.0161283 3.3032374
9.4067993 -2.8800647 3.0809314
9.6531963 -2.8179555 3.1195621
10.124823 -2.9085927 3.2096357
13.801993 -2.8101127 3.2583866
20.722599 -2.8841224 3.2142148
21.167091 -2.733201 3.2514029
34.331242 -2.6103191 3.2732911
35.178814 -2.8676088 3.3168693
-8.8800611 -2.054147 3.0346446
34.309914 -2.4963257 3.2725048
35.402512 -2.4332137 3.3297999
35.634819 -2.1615047 3.3428917
-13.884791 -1.5766829 3.0507739
-9.0280867 -1.6086016 3.0452802
-8.9374743 -1.8460211 3.1764584
33.917053 -1.5832109 3.2553246
36.001789 -1.953934 3.3628883
36.579861 -1.8762376 3.3934679
-27.901091 -1.1820776 3.2031417
-13.907031 -1.4047594 3.052289
-9.0754032 -1.4700911 3.049186
33.789345 -1.2488823 3.2502227
-31.354887 -0.66975254 3.3866003
33.478203 -0.69884217 3.2368703
33.623363 -0.86741304 3.2435186
36.8395 -0.70517099 3.4130945
-31.356342 -0.49221328 3.3877769
32.643993 -0.14672796 3.1966066
33.279224 -0.42816338 3.2280848
31.86977 0.48868418 3.1606259
32.262558 0.27816409 3.1796279
32.715115 0.16828531 3.2025597
31.495024 0.88778245 3.144249
31.694281 0.7883926 3.153883
31.771063 1.1931505 3.1614444
33.317089 3.9165642 3.2735214
19.804703 4.181231 3.1973166
32.746986 4.280663 3.2489457
33.106411 4.0010624 3.2637007
14.144412 4.7971215 3.1782978
30.852547 4.8932981 3.1597791
31.05315 4.7720065 3.1682658
32.72591 4.6479855 3.2532358
0.78174049 5.4332747 3.0739748
7.3770308 5.2188573 3.3441572
7.5331373 5.1538696 3.3708501
14.316227 5.0977554 3.2135615
30.859509 5.2459555 3.1658826
-7.2450008 5.8346939 3.2747052
0.87478304 5.5607009 3.0996675
30.711483 5.7776766 3.1673031
31.052025 5.585104 3.1815224
-13.815661 6.1833234 3.1797814
-7.177897 6.0991492 3.157311
-0.51966041 6.2855015 3.3074613
-0.32189646 6.3355155 3.3288581
13.459358 6.0623856 3.1739349
13.679386 6.0288987 3.1959293
30.442692 6.4832253 3.1663048
30.658466 6.3809748 3.1754642
-28.31142 6.9198256 3.3207483
-0.25560677 6.6415606 3.2359281
21.746147 6.8565664 3.4443355
-28.215298 7.1214919 3.3196068
16.383879 7.2989798 3.0272202
19.509695 7.4926467 3.2851732
21.403822 7.2909822 3.4318867
21.767603 7.1999788 3.4585316
30.713202 7.2652864 3.1954143
15.784038 7.7654538 3.0031953
16.231916 7.5206223 3.0258031
18.887146 7.7697492 3.2468562
19.378017 7.738214 3.2848859
19.555397 7.8587942 3.3042462
20.807251 7.9195957 3.4078205
21.175745 7.9544559 3.4391441
21.917368 7.5572147 3.4842005
30.820856 7.6487269 3.2087145
15.853031 8.2623034 3.03388
16.104271 8.1254044 3.045857
17.560419 8.0724173 3.1557026
18.922995 8.4091959 3.278347
19.695107 8.4929371 3.3431976
20.77878 8.0927038 3.4126565
15.934135 8.5277405 3.0538683
18.753868 8.6781101 3.2776468
19.691702 8.6366749 3.3494329
16.395952 9.206315 3.1248126
31.239828 9.2052469 3.264019
15.698566 9.928587 3.115124
16.244751 9.7918663 3.1464412
16.534737 9.599308 3.1566644
20.97839 9.5649719 3.4935412
31.571455 9.5260534 3.2881074
15.705368 10.251911 3.1348453
16.053516 10.008165 3.1450963
18.644159 10.311833 3.3517542
-24.161112 10.748542 3.1987016
-23.855759 10.893715 3.187712
15.680523 10.884726 3.1717887
16.137787 10.903936 3.2045648
-23.794231 11.026546 3.188334
-22.708414 11.208655 3.1409233
-22.424196 11.088835 3.1237981
15.72868 11.268323 3.1991909
16.084555 11.087959 3.2121863
-25.62635 11.87604 3.3005736
-22.538158 11.548146 3.1424503
-22.462803 11.619295 3.1409168
-8.7816505 11.984236 3.1232357
15.401439 11.620942 3.1998899
15.593178 11.605771 3.2116368
-25.833937 12.075637 3.3161454
-22.705559 12.313523 3.1730661
-10.684995 12.338418 3.2677176
-10.350137 12.283397 3.2423818
-9.7961893 12.133348 3.196852
-8.6590376 12.22814 3.133116
-8.4844131 12.322786 3.1293836
15.405062 12.010283 3.2257071
15.60392 12.120125 3.2459843
-24.561102 12.66954 3.2718737
-23.810898 12.553468 3.2327034
-23.038122 12.952865 3.2082357
-22.537312 12.548735 3.1722438
-11.58556 12.975517 3.3685675
-10.183024 12.843352 3.2698317
-9.9146194 12.707576 3.2436869
-8.5411396 12.55211 3.1492994
-7.5222106 12.656364 3.0985794
-7.3888621 12.754736 3.0986586
-23.102819 13.151406 3.217423
-22.700972 13.455202 3.2082009
-12.752156 13.26916 3.4649186
-9.313364 13.486468 3.2625306
-8.7585068 13.211103 3.2100728
-8.2875433 13.353748 3.1937494
-27.088596 13.932972 3.4295902
-23.766253 13.766541 3.2677176
-22.616142 13.688898 3.2117579
-22.443205 13.867787 3.209554
-11.123169 13.986249 3.4075158
-10.656476 13.758646 3.3627989
-8.731369 13.51749 3.2310834
-6.8930106 13.860602 3.1585722
-6.1357193 13.822824 3.1185308
-5.6605439 13.849523 3.0985689
-5.3430457 13.900271 3.0885203
-22.512125 14.017608 3.217628
-11.076286 14.039003 3.4082792
-8.877779 14.449501 3.3091235
-6.8110743 14.321499 3.1913741
-6.026957 14.072953 3.1337881
1.8820716 14.194771 3.4175415
-17.622534 14.984787 3.034976
-10.261633 14.728254 3.4084818
-8.7096491 14.745216 3.3224823
-8.2715416 14.78841 3.3024521
-19.679237 15.435486 3.1403198
-17.549351 15.092446 3.0360305
-17.208818 15.003143 3.018188
-16.905432 15.096119 3.0090933
-10.234756 15.412909 3.457408
-8.1818247 15.082721 3.3207345
0.9013257 15.452148 3.0577438
1.8282741 15.225888 3.0300331
2.1594734 15.37085 3.0428066
12.948427 15.267509 3.3218865
13.213737 15.10846 3.3229275
13.712255 15.153556 3.3524654
14.272228 15.399899 3.4014893
14.607057 15.399568 3.4197235
-18.934786 15.703864 3.1183863
-16.568146 15.636145 3.0166802
-8.5467434 15.748112 3.3917983
-8.2402811 15.771225 3.3781109
-0.098374046 15.877952 3.1100175
0.17889833 15.86114 3.1046162
1.3631188 15.735825 3.0810506
1.7220068 15.721695 3.0776973
2.352325 15.782178 3.081707
2.5994396 15.736156 3.0772376
4.4855022 15.887457 3.1025925
4.75348 15.867915 3.1039674
5.2444787 15.841804 3.1083457
5.7372456 15.814662 3.1139948
6.2360816 15.792991 3.1216042
6.738584 15.763271 3.1298871
7.2507544 15.744685 3.140775
7.7468557 15.725455 3.1524756
8.2458763 15.702496 3.1651835
8.7438736 15.654531 3.1768246
9.0799608 15.637471 3.186692
10.153466 15.997752 3.2575555
11.10244 15.980663 3.2945528
11.92844 15.919249 3.3257341
12.046877 15.930834 3.3321078
12.896054 15.782179 3.3603902
15.233963 15.89176 3.4916763
-26.205645 16.211796 3.4595788
-23.148243 16.085209 3.3166854
-22.884243 16.101542 3.3054721
-22.195982 16.03289 3.2724602
-21.690331 16.015568 3.2495027
-21.421442 16.192644 3.2441502
-20.693708 16.267406 3.215261
-18.250837 16.447124 3.1185794
0.10418963 16.324821 3.149312
0.94214869 16.362284 3.1437304
1.2566745 16.277531 3.1332395
2.24648 16.179579 3.119724
2.8293471 16.466068 3.147099
3.2162485 16.485765 3.1500664
4.4564705 16.095747 3.1219971
9.4635983 16.152212 3.24547
9.7848005 16.159567 3.2577498
10.392437 16.120531 3.2774715
10.736379 16.124687 3.2915869
11.372004 16.084036 3.314784
11.698615 16.0641 3.3274319
12.339575 16.043966 3.3549733
-20.602688 16.532419 3.221261
-20.35791 16.537483 3.210953
0.97824681 16.569868 3.1631336
1.0352494 16.567247 3.1624193
2.4935143 16.622267 3.1617198
2.8063393 16.535864 3.1537786
3.1363304 16.523174 3.1533165
4.4908886 16.869741 3.1956768
-19.684195 17.432722 3.2172518
2.6602693 17.006035 3.1983695
12.261644 17.310234 3.4562836
-21.36293 17.553812 3.2926211
4.5422096 17.785879 3.2830184
12.232958 17.534309 3.4738069
-21.663597 18.811472 3.3542352
-21.125465 18.85626 3.3336835
-20.961271 18.926863 3.3297439
4.6232033 19.019075 3.4007277
-6.0149379 22.01701 3.0041425
-5.9979625 22.195372 3.0139103
-6.1580844 22.94923 3.0596669
-4.8487935 25.930809 3.2093697
-5.2084022 26.007915 3.2191603
-4.7965927 26.019356 3.2137625
-4.6378703 26.749277 3.2540836
-4.4652762 26.878437 3.2592897
-4.7763367 29.212067 3.400043
-4.5837979 29.752296 3.4293113
-3.6117928 30.975815 3.4905291
-3.3387485 30.994955 3.4889164
-3.4507132 31.001717 3.4904275
-7.7833524 63.473255 3.2267821
-7.6862783 -26.870737 3.9582436
-7.4284148 -26.604963 3.9307013
-12.020784 -24.021471 3.9192066
-12.216158 -23.864359 3.9174576
-7.2381401 -22.724579 3.639219
-8.7548294 -22.128111 3.651834
-8.4244289 -22.050913 3.6335964
-7.5896525 -22.311865 3.6215012
-7.444838 -22.404081 3.6230564
-10.048101 -21.920082 3.6902981
-9.9796867 -21.972105 3.6909418
-9.3056774 -21.848711 3.654295
-8.977766 -21.981598 3.6503143
-8.0833616 -21.735788 3.5983098
-15.662109 -20.127237 3.8615699
-15.901369 -19.966805 3.86625
-40.030006 -19.09565 3.9197645
-40.032516 -18.917166 3.9173899
-40.036552 -18.117661 3.9067788
-40.047184 -17.690666 3.9017725
-40.060089 -17.171408 3.8959167
-40.068489 -16.740953 3.8911469
-41.884567 -16.153751 3.9731822
-40.837517 -16.099302 3.9213347
-40.172474 -16.264881 3.8907223
12.776932 -11.065351 3.9725227
42.808018 -10.612326 3.7260354
42.946926 -10.117357 3.7302222
43.044945 -10.294259 3.7361746
9.7161674 -9.8966656 3.9885316
23.709343 -8.0720196 3.5529943
26.56768 -8.0369778 3.786334
27.518898 -8.2753391 3.8699479
40.55122 -8.3707037 3.5998857
5.4837456 -7.9188671 3.9326205
28.497877 -7.6223488 3.9385586
25.287285 -7.275928 3.6645956
-14.164555 -6.7192125 3.7942114
-13.877964 -6.8003559 3.7653217
11.163726 -6.6640434 3.7402315
20.499779 -6.6802454 3.9400067
20.544834 -6.5927935 3.9419115
25.129492 -6.8311834 3.6427474
10.931623 -6.3985248 3.6747417
14.697284 -6.0586948 3.7562656
20.672213 -6.4136777 3.9500611
21.04628 -6.3162675 3.9896822
39.955372 -6.2034664 3.5633841
-14.217175 -5.7982593 3.7653241
13.840372 -5.9336128 3.6287518
14.207326 -5.9012747 3.6773672
14.705532 -5.9269085 3.7486911
39.155899 -5.9292321 3.5217209
8.6396046 -5.0757527 3.7851379
11.325894 -5.1661091 3.6061542
11.503845 -5.1234803 3.6313038
14.78857 -5.3845968 3.7263355
8.7061415 -4.9628062 3.7792084
13.620909 -4.6388454 3.5146341
13.214272 -4.1917005 3.8495996
13.757507 -4.1986217 3.7026842
14.022197 -4.1940179 3.5486898
12.95825 -3.9932058 3.7901998
13.357128 -3.9206464 3.8570037
13.529808 -3.8585944 3.8842127
14.066598 -3.970973 3.5439677
27.910318 -3.6227617 3.8395908
13.347948 -3.0060987 3.8021283
13.940207 -3.0669088 3.9150348
14.276482 -3.4114025 3.5499923
29.433151 -3.3874505 3.9701691
29.709843 -3.1854677 3.9933202
13.346539 -2.9453712 3.7987859
13.89458 -2.7300928 3.8908329
14.064802 -2.5482292 3.9148941
20.477585 -2.6254869 3.8338642
20.525688 -2.6345406 3.8398495
13.716405 -2.2855682 3.8388157
20.557652 -2.4505928 3.8414097
21.626719 -2.3489335 3.9701393
-21.050257 -1.5126987 3.6739206
-13.894554 -1.6044291 3.6358328
-8.8552742 -1.8236675 3.8585656
-21.067089 -1.1868731 3.675766
-20.981058 -1.3431019 3.6680439
-13.900141 -1.3738651 3.6350162
25.31382 -0.67984968 3.6093254
-41.866394 -0.32355192 3.9389229
25.113226 -0.31998813 3.5932672
24.362915 2.4481549 3.5560286
24.13726 2.7505634 3.5413797
24.197897 3.1141036 3.5530827
24.784815 3.4186943 3.6098263
24.388563 3.7932084 3.5830915
24.542561 3.8572662 3.5977211
19.796734 4.2314014 3.8220634
24.253019 4.3537493 3.5837986
24.517929 4.2173228 3.6034937
14.224533 4.7739148 3.6304872
24.155745 4.7282972 3.5844159
-7.4975696 5.4926224 3.8412251
7.3406696 5.3983955 3.5094771
24.49379 5.431479 3.6316233
-7.2282314 5.7040281 3.8156695
23.361732 5.7839866 3.5452638
23.539419 5.5988421 3.5549507
24.232279 5.6919518 3.6165576
-13.807878 6.212738 3.7918482
13.425186 6.4516888 3.6388578
13.84342 6.1561646 3.6733921
14.038967 6.2249327 3.7064805
23.42485 6.2670403 3.5652735
23.699007 6.2626891 3.5883245
12.816414 6.6856713 3.5756721
13.19682 6.6185007 3.62166
22.819445 6.8045864 3.5319834
23.200354 6.60531 3.5572438
-35.500626 7.254127 3.6961799
-35.460918 7.3839555 3.6963582
19.355526 7.3516912 3.9090881
17.432566 7.772469 3.7179873
17.803135 7.7260299 3.7561595
18.195707 7.7170124 3.7992568
18.741051 7.8324137 3.8669782
19.214096 7.7998452 3.9181843
19.72377 7.7773848 3.9743462
17.273504 8.3431435 3.737098
19.072275 8.0527782 3.9169812
16.488461 8.9833412 3.6974006
16.800964 8.8724947 3.7225137
17.156998 8.6420765 3.7445023
16.472099 9.0403404 3.6997948
16.576813 9.2065239 3.7227921
5.9536157 9.704812 3.7010062
6.0935845 9.7179461 3.8303821
16.751497 9.7681141 3.7824833
6.1420264 10.486732 3.7734489
15.973221 10.437051 3.7562485
16.329472 10.408231 3.7892928
16.721395 10.292219 3.8195138
17.050087 10.363029 3.8582332
17.761473 10.054824 3.908155
18.082998 10.333293 3.9620237
15.771132 10.759562 3.7630498
16.160563 10.629188 3.7903411
11.575947 11.352729 3.9509826
15.792209 11.295484 3.8103073
16.024445 11.419737 3.8430195
15.362698 11.919231 3.8248191
15.771429 11.798237 3.8519914
-29.618853 12.268908 3.506042
-10.773746 12.28408 3.8987496
-10.19875 12.18835 3.8377519
-9.8365812 12.255569 3.811528
-9.4296865 12.315998 3.7813697
15.398117 12.072693 3.8418624
15.655528 12.263557 3.8826118
16.038795 12.023235 3.8966031
-30.595629 12.890896 3.5701878
-9.5697155 12.834211 3.8427119
-9.4498043 12.583634 3.8084664
-9.139658 13.295097 3.8513336
-8.573595 13.200214 3.7957041
-8.2986507 13.273901 3.7812169
-6.6357112 13.334445 3.6623256
-6.3688307 13.350261 3.645241
-5.7289014 13.335121 3.6001306
-5.4799118 13.456511 3.5973768
-9.3165016 13.86097 3.9220395
-8.467701 13.526692 3.8202782
-6.220799 13.636964 3.6665008
-8.4029312 14.866659 3.9545057
-5.9491057 14.610255 3.7574778
13.073573 15.457158 3.9911509
-17.699356 15.803386 3.9613247
-17.497007 15.871434 3.9514093
-11.779055 15.555843 3.5581365
4.7585192 15.864746 3.6539493
5.2497935 15.8398 3.6603394
5.7429719 15.814174 3.668566
6.2423191 15.791185 3.6791697
6.744957 15.764749 3.6913176
7.256012 15.738229 3.7056317
7.7504001 15.717357 3.7218542
8.2485313 15.691715 3.7394011
8.7764931 15.638966 3.7567346
9.1543083 15.647105 3.7757797
10.22097 15.986351 3.8716059
11.144269 15.978956 3.9235239
11.999767 15.897667 3.9673047
12.095802 15.938718 3.9781117
12.960205 15.512937 3.989223
15.743622 15.854403 3.5176339
16.242123 15.885465 3.5486569
16.549023 15.740746 3.5561223
17.3904 15.834883 3.6133888
-17.623146 16.134586 3.9762919
-17.256624 16.127134 3.9506319
-16.825474 16.17581 3.9242811
-10.454618 16.102249 3.5213466
4.5077071 16.014872 3.6691618
9.4727821 16.083406 3.8440423
9.7300425 16.142057 3.8641376
10.202912 16.105268 3.8847206
10.76812 16.099237 3.9155183
11.222204 16.084736 3.9404416
11.512917 16.060003 3.9551353
4.558135 16.891954 3.7837486
15.992067 16.696436 3.5945773
16.079062 16.691435 3.5990758
-16.810352 17.019281 3.9771485
17.835117 17.141281 3.7336097
18.245651 17.115934 3.756273
18.511673 17.110521 3.7719359
4.6056418 17.773184 3.8988543
12.947845 17.799503 3.5275197
-7.5860162 18.292152 3.5538466
-7.2108269 18.278059 3.5367353
-6.7211366 18.249487 3.5141718
-6.301661 18.349113 3.5062022
12.173696 18.286791 3.5347619
14.391991 18.388102 3.6432452
-6.1480942 18.738962 3.5340664
14.417173 18.77249 3.6756198
-34.765129 19.494938 3.9617848
-6.1269116 19.195866 3.5730793
14.442299 19.383938 3.7266762
-35.475533 19.524181 3.9958835
-6.0919476 19.736149 3.6191068
-6.0639758 20.314398 3.6689746
4.6934414 20.26128 3.5192037
-6.028986 20.8127 3.7117977
12.353951 20.839159 3.7609172
13.400858 20.812298 3.8001685
-6.0078359 21.175255 3.7432175
-5.9925971 21.345034 3.757792
-5.9747634 21.718592 3.7904599
4.7726374 21.670498 3.6536269
-5.9506302 22.191267 3.831862
-6.147212 23.167538 3.9254098
4.844039 23.100302 3.7899537
4.4326267 24.988226 3.966085
4.7137718 24.736151 3.9442337
4.3172216 25.12064 3.9779191
-4.1287613 31.337143 3.5173931
-3.9879727 31.471241 3.5237873
-4.369092 31.683216 3.5404916
-3.9507136 31.837906 3.5450749
5.121078 31.801514 3.5143747
5.6364532 31.995398 3.5284815
-3.4595761 32.252247 3.5646698
5.4179807 32.036209 3.5298331
5.5267029 32.010033 3.5287981
-5.0417962 32.565807 3.6003056
-4.8254843 32.667 3.6037261
-5.3341098 33.317165 3.6480236
-4.9125276 33.03437 3.6263723
-18.753305 -27.693857 4.4860454
-18.315117 -27.708893 4.4640498
-17.743767 -27.645536 4.4306316
-17.237946 -27.75824 4.4121771
-16.742571 -27.778921 4.3888774
-16.24791 -27.788618 4.3653727
-15.734174 -27.760902 4.3389363
-15.279491 -27.68907 4.3127966
-14.842143 -27.531998 4.2820921
-9.5564709 -27.511894 4.0662527
-9.327774 -27.503563 4.0577903
-8.7759523 -27.55122 4.0428801
-8.3856936 -27.566113 4.0313878
-13.734813 -27.338388 4.2191758
-13.34905 -27.338892 4.2023454
-12.732124 -27.367561 4.1779885
-12.423802 -27.374794 4.1656327
-10.585424 -27.452345 4.0989017
-10.298702 -27.47213 4.089788
-11.289204 -26.141319 4.0336142
-11.353693 -25.943424 4.0224299
-43.189594 -24.316694 4.1493554
-43.220795 -23.833164 4.1425915
-43.178429 -23.403183 4.1334949
-43.672573 -22.543663 4.1427913
-43.771839 -22.191381 4.1420465
-7.7684832 -22.160086 4.4931707
-7.3229914 -22.222757 4.4774141
-44.33419 -21.751051 4.1620226
-8.0696106 -21.795399 4.4709539
-44.655033 -21.421032 4.1724291
-11.67937 -19.518871 4.4722319
-11.489227 -19.616911 4.4678216
-11.649917 -19.478014 4.4663367
-45.110821 -16.036562 4.1309075
-44.682816 -16.165556 4.1109815
-42.940125 -16.178837 4.0252576
-45.5369 -15.827981 4.150095
-45.284332 -15.738385 4.1367836
-44.895332 -15.150429 4.1122985
-45.067596 -14.931553 4.1190214
-44.54517 -14.572252 4.0900373
-45.821667 -14.055228 4.1498909
-45.324535 -14.270886 4.126606
-44.528728 -14.386197 4.0877233
-1.2284253 -14.30935 4.4640169
-47.674114 -13.500722 4.2393098
-46.544796 -13.820783 4.1845441
-28.066549 -13.658386 4.4559937
-49.674057 -13.264995 4.3390007
-28.603642 -13.058379 4.4820857
-28.373653 -13.281767 4.46981
-28.751619 -12.827152 4.487833
15.708485 -12.989447 4.4970865
14.452053 -12.312228 4.2873483
-49.14394 -11.793696 4.3048825
11.949402 -11.532734 4.4893808
12.024981 -11.501798 4.4940162
10.785219 -11.262116 4.3141537
12.254558 -11.226746 4.483202
12.359949 -10.992709 4.4632831
9.7344751 -10.073236 4.0174298
10.429705 -10.233828 4.1198959
10.877843 -10.402599 4.1972222
9.1556625 -9.7912216 4.3561988
9.7264566 -9.8898592 4.1389079
10.106259 -9.9470568 4.0400643
8.3401518 -9.2271137 4.1506133
8.7704515 -9.2423677 4.2057791
9.3141785 -9.4715414 4.3174028
9.5890179 -9.176219 4.3008285
10.359348 -9.2424145 4.4209375
5.3507318 -8.5674276 4.080904
8.9765139 -8.9754181 4.1829052
9.1962976 -8.8195 4.1840467
10.284906 -8.8128338 4.3368912
10.759566 -8.6229334 4.377358
-13.465684 -8.3086395 4.4388809
11.789487 -8.1314249 4.4679437
-46.83139 -7.5928411 4.175787
-13.731698 -7.7958741 4.4423466
12.067341 -7.7285328 4.457159
23.993778 -7.6426697 4.3753548
24.016748 -7.5700541 4.3754354
-46.162003 -7.1349978 4.1409874
11.894135 -7.4683285 4.3898926
24.176523 -7.3767619 4.3871918
25.047047 -7.123208 4.4798994
-46.556984 -6.754302 4.1614161
-46.413055 -6.9077439 4.1539464
-14.069855 -6.7252555 4.427218
11.1563 -6.70152 4.1518888
13.440236 -6.5647283 4.0876689
13.849393 -6.5263977 4.1513443
14.26914 -6.5888228 4.2268276
22.804338 -6.7201319 4.2064981
23.118118 -6.6686168 4.2412066
24.951262 -6.7009406 4.4558907
25.210356 -6.9585814 4.4938698
-45.643234 -6.1995969 4.1143036
-13.622891 -6.1560063 4.3315272
-10.196884 -6.2365704 4.3612366
13.880168 -6.171926 4.1239653
14.178569 -6.1756291 4.1745849
21.822088 -6.4479957 4.0837631
22.802584 -6.0924635 4.1865363
-45.522991 -5.9267879 4.1082764
-9.8138609 -5.7897868 4.2589278
11.852321 -5.7104011 4.1525617
13.966867 -5.7506175 4.1016903
14.239037 -5.7923813 4.1518521
14.558018 -5.7759209 4.2053332
-45.213329 -4.5336113 4.0944695
13.107547 -4.5510173 4.283319
-46.218346 -4.2178507 4.1476393
13.239561 -4.3435917 4.2927451
19.945461 -4.0987301 4.437232
-46.363503 -3.9734871 4.1559224
12.872543 -3.7742124 4.167697
13.201021 -3.608299 4.2254095
13.708035 -3.6499672 4.3380818
14.053485 -3.595726 4.4093742
19.994318 -3.9482272 4.4399748
20.105808 -3.7162802 4.4502401
33.508976 -3.5305324 4.3243318
34.772865 -3.5733998 4.4342446
-13.962276 -3.3862424 4.2710934
13.994883 -3.1355324 4.3667121
21.988426 -3.235018 4.0250092
31.593645 -3.0775177 4.15657
-46.082066 -2.9318526 4.1450219
-45.831917 -2.6600547 4.1331329
-12.517467 -2.7183185 4.0301633
-12.425479 -2.8080082 4.0182052
12.695259 -2.8107197 4.4562683
13.023326 -2.9098632 4.1389561
14.074857 -2.5956619 4.3542848
31.39101 -2.802557 4.1383085
31.514143 -2.9703348 4.1493831
34.385143 -2.9726114 4.3991666
34.76527 -2.8428874 4.4321032
-13.922512 -2.1029592 4.2363734
13.568916 -2.0936496 4.2170491
14.167141 -2.4448535 4.3674655
20.321409 -2.3250954 4.4523544
32.25774 -2.2245214 4.2132416
-46.305275 -1.7588115 4.1623306
-27.5499 -1.5348717 4.2405677
-13.938303 -1.8709586 4.2352896
13.640422 -1.82857 4.2222724
32.044102 -1.9975216 4.1946635
32.73296 -1.7855847 4.2550192
-27.70249 -1.2237082 4.2547016
-20.901615 -1.2549727 4.4903727
-13.862803 -1.3399526 4.2171998
33.776543 -1.426398 4.3468771
-27.782686 -0.81275558 4.2631574
25.282574 -0.79294235 4.4105825
33.446037 -0.81960368 4.3200426
-47.444698 -0.16070244 4.2320461
25.338791 -0.45747465 4.418129
31.908794 -0.093639225 4.1892986
32.256866 -0.30788797 4.2185016
32.087143 0.10937481 4.206234
23.737314 2.2650292 4.2500958
18.860401 2.7858706 4.2533607
23.420645 2.8948996 4.2240791
23.634047 3.2302911 4.2578697
23.702179 3.7507975 4.279325
14.166993 4.2624364 4.4794827
19.820221 4.288445 4.4576502
23.713131 4.2445598 4.2945609
-7.0265565 4.9328446 4.484086
-6.9662628 4.9654479 4.4734735
14.289865 4.7207475 4.0876265
23.320507 4.5118675 4.2552214
23.848244 4.8471823 4.3295336
32.799541 4.6982875 4.3303099
-7.5630136 5.3100657 4.244585
-7.3841033 5.3942714 4.2167802
22.828779 5.3011341 4.2229629
32.722591 5.0050249 4.3299108
-7.1754761 5.6762395 4.2063212
-6.9615202 5.9070559 4.1907945
22.654692 5.7150059 4.217814
-13.812915 6.2149873 4.4097323
-6.977139 6.0913138 4.2168274
20.873489 6.201993 4.0276861
22.23838 6.035161 4.1812477
22.632217 6.0348625 4.2278256
23.500456 6.1180758 4.3340716
-28.203392 6.8970513 4.4165249
12.390351 6.8916216 4.3922558
12.865323 6.6845989 4.0171456
13.218285 6.6736803 4.0750718
20.934807 6.8987684 4.0672541
22.196922 6.8574843 4.2122836
-41.844501 7.4392624 4.0267458
-28.149157 7.0564389 4.4160295
12.416292 7.2403402 4.4450107
12.522961 7.278213 4.470418
13.043792 7.4051542 4.1270628
20.272394 7.3678117 4.0145693
21.99968 7.042994 4.197876
22.434481 7.3412671 4.2626314
30.968473 7.0002794 4.2271919
31.191643 7.2096281 4.2520242
-46.244019 7.6953382 4.258441
-41.862671 7.7521768 4.0327463
12.219083 7.5784135 4.455646
18.469757 7.7647953 4.4574857
18.574411 7.9146986 4.4836931
20.600029 7.7132926 4.0703425
-41.51944 8.0119114 4.0193038
-41.421944 8.1532249 4.016645
-9.1741467 8.3849602 4.4311848
-8.9187775 8.3912888 4.3909879
-8.2176504 8.353076 4.2754817
11.462734 8.4703579 4.4571633
17.333328 8.4336357 4.3487492
17.644756 8.4287415 4.3919072
18.479635 8.0372353 4.4793248
20.994911 8.2078915 4.1421933
21.077101 8.1321344 4.1473351
-41.788654 8.8561573 4.0476508
-41.310036 8.766098 4.0214367
11.450582 8.6099482 4.4778986
17.459578 8.7982731 4.3969712
-42.003784 9.3815556 4.0680685
-41.459629 9.4323969 4.0410748
5.8954358 9.2373562 4.2127738
6.0984669 9.3566313 4.2633786
11.062896 9.2344608 4.0713825
16.416603 9.4355164 4.3123975
16.729328 9.3588419 4.3471217
17.369854 9.304389 4.4287629
17.550585 9.2000971 4.4442296
6.2998452 9.701436 4.3102193
6.5353575 9.6487522 4.3832798
11.260559 9.7602215 4.1761351
16.446943 9.5553799 4.3277273
31.521698 9.8365316 4.3623266
-41.18708 10.246611 4.0424242
5.9736214 10.3236 4.1136055
6.1994362 10.168829 4.1611438
6.5772209 10.216272 4.1393504
16.627151 10.373304 4.4306479
-25.687342 10.828129 4.3304935
-22.78911 10.727016 4.0901127
-22.409979 10.832068 4.0637631
11.732301 10.74887 4.3877878
12.121214 10.996462 4.4761844
16.358271 10.751199 4.434207
16.706623 10.669527 4.4705105
-25.686098 11.164543 4.343318
-25.247473 11.276132 4.3119092
-22.564335 11.247494 4.093667
-22.40189 11.257585 4.0810313
11.78194 11.062073 4.4423289
-25.506868 11.603388 4.3460579
-22.087183 11.70987 4.0755467
-9.8967838 11.818767 4.3770199
-21.984587 12.025293 4.0814724
-10.122393 12.291178 4.457808
-9.6586714 12.334649 4.4097953
-9.2057238 12.340239 4.3595667
15.626467 12.141586 4.4946074
-12.003428 12.819839 4.0599909
-11.88776 12.920792 4.058105
-9.1401367 12.651156 4.39011
-8.7677746 12.767953 4.3643279
-8.4603596 12.940531 4.3533802
-24.695717 13.420415 4.3589001
-24.362972 13.377402 4.3306937
-23.903215 13.493325 4.2999024
-8.8914738 13.070398 4.4152222
-8.2124653 13.284053 4.3720036
-24.29022 13.682486 4.3390946
-23.591415 13.913388 4.2954154
-23.014254 13.954597 4.2526588
-22.675594 13.942194 4.2259121
-8.7354727 13.700006 4.4789686
-8.0997171 13.598028 4.4014006
-7.9506469 13.694303 4.3993454
-23.534126 14.113008 4.30058
-22.794159 14.225658 4.2490363
-8.1463995 14.231565 4.4897261
-10.481415 14.67564 4.0984616
-9.2795734 14.999092 4.0347629
-11.53028 15.246402 4.2420311
-11.433988 15.346769 4.2436743
-10.716157 15.289488 4.1785569
-9.2438488 15.271339 4.0602903
-8.7609234 15.334036 4.0305853
-8.3412743 15.360579 4.0025449
13.342434 15.447934 4.009336
13.726788 15.425534 4.0349412
14.239226 15.396399 4.0701871
14.650456 15.383804 4.1003628
-21.374899 15.988687 4.2351727
-19.606388 15.730003 4.0920672
-11.697912 15.78823 4.3088937
-11.23506 15.706121 4.2624574
-9.7421474 15.841197 4.1575756
-8.4503117 15.965981 4.0755134
4.764205 15.864158 4.2092433
5.2549324 15.840424 4.2177448
5.7487941 15.812378 4.228056
6.2491899 15.793016 4.2424326
6.7523346 15.767323 4.2583246
7.2624979 15.738203 4.2764149
7.7567649 15.716454 4.2972612
8.256959 15.695234 4.3207793
8.7879324 15.646912 4.3441443
9.1528702 15.627144 4.3636193
9.930192 15.983491 4.4690228
10.162142 15.983533 4.4850883
12.91522 15.815808 4.0192256
15.416737 15.881847 4.2113848
15.521652 15.897458 4.2212629
16.222429 15.90086 4.2779636
16.744127 15.797844 4.3108454
17.220608 15.850225 4.3560357
17.619034 15.945691 4.3992181
-23.107666 16.058369 4.367218
