# .PCD v0.7 - Point Cloud Data file format
VERSION 0.7
FIELDS x y z
SIZE 4 4 4
TYPE F F F
COUNT 1 1 1
WIDTH 1558
HEIGHT 1
VIEWPOINT 0 0 0 1 0 0 0
POINTS 1558
DATA ascii
63.48782 -3.8512278 3.1407948
63.807739 -3.8834825 3.0958805
62.815014 -3.2868538 3.1601198
63.285519 -3.3029301 3.0846913
63.544197 -3.3799362 3.0552642
62.681641 -2.9328184 3.1263995
62.996677 -1.0046949 3.4120736
63.272861 -1.0409451 3.3664236
62.848412 -0.89297521 3.4197631
63.207939 -0.96452737 3.3641438
57.691833 16.499989 3.0421386
57.825043 16.73855 3.2112908
57.838921 17.789755 3.1240201
47.129574 18.25131 3.1220682
57.249191 18.182854 3.3519421
58.297394 18.307405 3.3528111
47.154591 18.73749 3.1512473
58.047203 18.777184 3.1778545
59.235985 18.797144 3.2596297
59.798588 18.813374 3.0704827
47.193726 19.348524 3.1878982
58.808956 19.306545 3.0176213
59.370483 19.167038 3.271112
59.874992 19.089224 3.0883212
47.206329 19.718346 3.2126594
47.231766 20.333134 3.2541256
57.687984 20.411383 3.0064235
58.231224 20.014214 3.2950954
58.578369 20.351707 3.2438312
47.259285 20.708469 3.2781212
60.75536 20.80588 3.1155965
61.062759 20.857897 3.0301957
47.273125 21.082722 3.3048108
60.403156 21.255344 3.3187523
60.858604 21.277508 3.1819491
61.005981 21.293451 3.1399484
47.317123 21.935574 3.3654692
47.339291 22.406275 3.4003897
61.87244 22.444431 3.1471949
47.353203 22.667 3.4197941
61.857357 22.539686 3.1746762
47.411083 23.309729 3.464757
61.34193 23.206009 3.3257453
62.95636 23.453465 3.1103778
47.415039 23.578691 3.4872985
62.419342 23.557421 3.2784319
62.746315 23.738682 3.2413368
63.211006 23.897453 3.1663523
59.408871 24.301605 3.214385
63.408737 24.027887 3.1534812
63.556229 24.195684 3.1647437
62.508816 24.955696 3.1471415
63.278019 24.939445 3.4410739
62.488655 25.092472 3.1851652
62.693249 25.07074 3.1344256
63.105713 25.202131 3.0773675
62.172714 25.803362 3.4303312
62.856777 25.827553 3.288151
63.290909 25.576284 3.1330283
63.620632 25.702288 3.0973823
62.217194 26.068962 3.4864264
50.863266 49.361027 3.1681561
94.926178 71.891495 3.4172099
94.578232 72.409264 3.4914913
95.599686 72.616592 3.4514914
96.939079 72.889664 3.4000769
96.735832 73.245621 3.4485645
96.513626 73.564651 3.4944668
44.304596 75.368233 3.2736454
44.516819 75.454117 3.2612286
44.675777 75.668304 3.2576671
42.831879 76.442261 3.4237738
43.319641 76.495346 3.3897977
43.036762 76.558937 3.4131403
43.571938 76.500275 3.3713341
44.567753 77.778709 3.3465471
46.996323 78.67012 3.1993699
85.737244 -41.576347 3.9604993
85.801437 -39.624813 3.7681699
85.840965 -39.065792 3.7124815
85.878922 -37.849644 3.5934334
85.910599 -37.303291 3.5395751
86.595322 -23.939037 3.760632
90.108177 -23.278131 3.6865187
61.38974 -22.872725 3.8279362
61.685013 -22.745514 3.7808065
90.02285 -22.653427 3.6132421
89.994995 -22.307869 3.5730009
90.024719 -22.057266 3.5443907
90.020058 -21.731979 3.506918
58.951881 -21.007 3.9443502
61.192696 -20.021175 3.5684738
60.363205 -19.766312 3.6450977
61.460464 -19.974949 3.5317249
109.85739 -17.470631 3.9785371
77.68718 -15.224961 3.9230614
77.472458 -14.817937 3.8604813
77.621124 -14.32663 3.7744522
78.105019 -13.21688 3.5793161
84.456566 -12.621596 3.5082979
70.495308 -11.345382 3.6191149
70.719902 -11.382257 3.6081972
71.205986 -11.197843 3.5398245
64.720169 -10.056005 3.9994574
66.792435 -9.73804 3.6919951
76.091606 -9.5426664 3.9254394
77.683685 -9.8511925 3.9690964
78.377434 -9.825305 3.9632616
78.99984 -9.9569864 3.9920502
64.234772 -9.2459078 3.9272037
73.686386 -9.282135 3.9463475
75.324028 -9.2934122 3.8919277
76.14254 -9.3928766 3.894124
79.793839 -9.0218229 3.8217535
81.254601 -9.0199594 3.8565645
83.178726 -9.3250723 3.9837995
65.933357 -8.6152525 3.5992775
66.202629 -8.5206985 3.5504024
73.812439 -8.5085878 3.7803669
76.958122 -8.5288649 3.709877
77.161499 -8.6167135 3.7260747
78.951584 -8.8115568 3.7692728
79.436119 -8.7299662 3.7600031
79.731392 -8.7200804 3.7631748
80.305794 -8.6509447 3.7620749
81.955627 -8.6930695 3.8202734
65.616936 -8.3026123 3.5849817
66.045052 -8.4677896 3.5603137
73.86467 -8.0813665 3.6897087
75.549065 -8.0526381 3.6335149
77.477867 -8.2238188 3.6470165
78.926865 -8.1507015 3.6414177
79.083084 -8.1983061 3.6527047
80.36377 -8.3488274 3.7067745
83.683716 -8.3214626 3.8317811
84.229401 -8.2388906 3.8472614
73.942223 -7.8203783 3.6326604
74.243774 -7.7159095 3.6003623
74.681091 -7.5158453 3.5452795
74.515114 -7.4925241 3.5454202
75.079224 -7.4865217 3.528707
65.140678 -5.6189003 3.965929
64.415588 -5.1069036 3.9714859
64.737885 -5.0929828 3.9191208
65.06942 -5.1232481 3.8752127
63.901585 -4.8244371 3.9969349
64.161728 -4.6968474 3.9292767
64.549095 -4.0935698 3.7462115
61.793701 -2.7920809 3.9829645
62.085281 -1.7608395 3.7327006
57.708649 16.945827 3.5585928
49.029381 17.729662 3.527545
47.182247 18.25848 3.9443903
47.224136 18.822586 3.9780219
57.965355 19.050463 3.7317004
91.85688 19.964949 3.5356641
49.890671 20.480148 3.5731382
49.949913 20.573975 3.569545
59.149857 21.303965 3.7249951
49.339073 21.654068 3.7910423
50.08466 21.567368 3.6339002
59.390427 21.889851 3.7671394
60.907185 23.714434 3.7314706
61.33522 23.877831 3.6537404
61.622452 23.858498 3.5701532
61.684967 24.447954 3.7064738
46.518791 25.410271 3.7963562
62.958714 25.714876 3.7369328
63.022247 25.956524 3.7913511
53.37809 44.452305 3.7967129
53.700977 44.358082 3.7526846
54.187115 44.447384 3.7099471
53.869896 44.540791 3.7531214
54.267914 44.666046 3.723542
54.693317 44.720093 3.6841178
54.695377 45.641506 3.7777193
91.582497 55.613903 3.5754595
92.300964 57.488117 3.7950668
91.865784 57.921379 3.8705561
92.161377 57.772102 3.8384936
40.275352 75.856911 3.5890255
39.169788 76.216064 3.6837695
39.88752 76.110855 3.6272483
40.67263 77.208755 3.6122556
41.147408 77.325539 3.581893
85.567642 -45.739216 4.3751884
85.67099 -42.83342 4.0858917
61.031818 -29.051537 4.4870653
65.947639 -18.594643 4.1025782
66.224342 -18.587111 4.0725474
66.316277 -18.492847 4.0499287
87.379303 -18.439442 4.4406939
90.275772 -17.846676 4.4456959
114.49771 -17.835423 4.3331447
114.67242 -17.714981 4.3389988
90.298286 -17.256872 4.364399
90.387695 -16.671791 4.2872248
90.803444 -16.606939 4.2962985
91.286591 -16.624153 4.3204551
91.782967 -16.65785 4.3483667
92.27877 -16.679825 4.3756089
92.790001 -16.712606 4.4059839
93.299217 -16.72386 4.4343834
93.825684 -16.754955 4.4672356
94.172729 -16.763264 4.4878206
70.39637 -16.039871 4.4477577
97.779739 -14.114182 4.4141636
65.773224 -13.522268 4.463316
70.223038 -13.604263 4.035944
97.816452 -13.853803 4.3883324
99.178558 -13.761213 4.4865847
69.910202 -13.344555 4.0162096
97.769028 -13.14104 4.3071971
97.728714 -12.812425 4.2687192
98.689415 -12.715013 4.3368807
99.428787 -12.931828 4.4211783
99.705734 -12.636802 4.4148641
65.099678 -12.464608 4.3626103
82.356056 -12.285417 4.4952898
98.704208 -12.444886 4.3101902
99.99379 -12.323524 4.408648
98.977188 -11.777558 4.2657442
76.469223 -11.386857 4.292521
78.519554 -11.093816 4.213336
98.094505 -11.407404 4.1525888
99.203209 -11.424155 4.250463
99.949982 -11.366996 4.3115892
64.9813 -10.570388 4.0533295
79.480438 -10.992309 4.1972928
80.845009 -10.589454 4.1400614
98.698006 -10.613168 4.1264443
65.089424 -10.480422 4.0241747
71.568108 -10.207427 4.2572784
72.796638 -10.309924 4.2042885
73.390991 -10.155613 4.1417294
73.560844 -10.16343 4.1353602
78.84671 -10.069005 4.0128918
80.878067 -10.426171 4.1098876
67.678665 -9.7012014 4.4929991
71.806419 -9.8869753 4.1742392
72.247742 -9.6298132 4.0929399
72.747597 -9.8889256 4.1188836
73.085442 -9.8434973 4.0915985
66.679695 -9.1568995 4.4937882
67.059776 -9.1886263 4.4553213
66.552246 -8.5563192 4.3839583
65.327545 -8.0410862 4.4367943
65.846848 -8.3235846 4.4253893
66.252594 -8.3784895 4.3844485
65.883499 -7.73452 4.2984467
65.368118 -7.0309401 4.2231131
65.651421 -7.4098625 4.2622981
65.156357 -6.0593729 4.05375
62.102028 -5.5711451 4.4544368
62.968895 -5.8378954 4.3541365
63.025829 -5.9075289 4.3582134
61.927078 -5.3092947 4.435811
62.1693 -5.25948 4.3819146
62.585052 -5.2366047 4.3027997
63.378197 -5.0628157 4.131341
62.762184 -4.741168 4.1748104
63.182877 -4.637012 4.0806594
63.689278 -4.9114723 4.049284
61.007202 -4.3499212 4.4297013
47.244156 19.31307 4.0121002
47.266178 19.765909 4.044004
47.286366 20.174181 4.0735431
47.309395 20.718239 4.115015
47.374405 21.554462 4.1757655
47.425552 22.363163 4.2402372
47.428661 22.667473 4.2685881
52.709496 46.953983 4.1206551
54.130287 47.354408 4.0116549
59.758587 -29.113667 4.6407709
90.136467 -21.537277 4.9684825
90.145638 -21.274685 4.9305344
90.157967 -20.855595 4.8701301
90.200378 -20.49567 4.8194323
71.305336 -18.647959 4.8335791
90.274239 -18.983631 4.605741
70.310303 -17.509903 4.7117414
99.323013 -17.016014 4.8546844
99.760452 -17.03616 4.8891597
69.262611 -16.764484 4.670157
69.535774 -16.661259 4.6281447
94.361771 -16.783688 4.501245
94.715828 -16.792688 4.5230336
95.266205 -16.816195 4.5588851
95.734894 -16.846827 4.591465
96.226158 -16.877083 4.6261563
96.792305 -16.894953 4.6649561
97.282867 -16.909306 4.6992149
97.781006 -16.941505 4.7368612
98.29126 -16.9734 4.7759523
98.704773 -16.971539 4.8049755
99.009338 -16.993359 4.8293166
69.755341 -16.122097 4.5150309
65.851486 -14.419839 4.6091709
65.598839 -13.683116 4.5115952
79.540207 -13.528035 4.6938324
62.846581 -13.229302 4.7907009
70.247742 -13.079202 4.9618416
70.511757 -13.027209 4.9295321
80.464752 -13.350774 4.6640587
81.783562 -13.024613 4.6209083
70.124557 -12.800076 4.9129238
70.757179 -12.727712 4.8473053
71.359322 -12.747074 4.8068876
71.589859 -12.622369 4.7645245
82.800018 -12.762912 4.5966258
70.826294 -12.461308 4.7856874
71.090218 -12.092649 4.6882267
73.946732 -12.135951 4.5285788
82.930565 -12.308261 4.5162086
66.684753 -10.120571 4.6946106
66.484169 -9.9798956 4.6893907
66.851707 -9.8290243 4.6137915
67.296646 -9.7112827 4.5377159
67.550117 -9.7480555 4.5169678
64.296219 -8.7394476 4.7271109
63.968918 -8.1522045 4.6566496
64.116341 -8.4144278 4.6876245
64.847649 -8.1867838 4.5340762
65.019432 -8.1517553 4.5024967
64.154549 -7.9164991 4.5806341
47.236382 17.85549 4.7429457
47.28009 18.719095 4.8011956
47.306622 19.262535 4.8406434
47.342758 19.791649 4.8785744
47.353031 20.133966 4.9071703
47.395782 20.798748 4.9597054
53.67783 43.806702 4.8830028
53.787224 44.322521 4.937438
53.864693 44.676064 4.9746275
54.208618 44.703976 4.9359446
52.368862 52.118259 4.6823769
52.5993 52.306873 4.6778069
86.707382 -22.937447 5.1121531
90.151932 -21.862587 5.0163846
63.268116 -17.71846 5.4935017
62.925266 -16.132603 5.26964
63.173553 -16.332222 5.2703009
63.709305 -16.363342 5.2053623
81.299759 -15.265143 5.0433507
69.024788 -14.935033 5.4606624
69.938835 -14.559237 5.3000631
69.241875 -14.145434 5.2739758
69.687363 -14.192317 5.2442122
69.439468 -13.984181 5.2220564
47.438549 21.475069 5.0161705
47.494137 22.412455 5.100328
47.494537 22.673027 5.1282387
53.653358 44.816013 5.0193291
53.905739 45.106594 5.0266705
53.836681 46.274288 5.1905408
53.651363 47.473511 5.3732448
53.77774 47.797588 5.4013658
53.914181 48.107395 5.4264936
53.836262 48.556358 5.4961739
47.809212 78.512886 5.4978595
86.943474 -19.173061 5.9108791
90.363556 -18.548412 5.9553099
87.127411 -18.390896 5.7753582
90.381531 -18.321224 5.9173613
109.23241 -18.229082 5.8101912
75.214767 -17.510307 5.5911112
109.26129 -17.679079 5.7623725
109.61964 -17.506878 5.7807407
90.401627 -17.220676 5.7313337
90.416847 -16.763321 5.6551952
90.713318 -16.628523 5.6510429
91.190155 -16.648258 5.6848884
91.684357 -16.675268 5.7221332
92.222878 -16.765741 5.7738271
92.753174 -16.828215 5.8214736
93.218773 -16.786524 5.8488326
93.717079 -16.775965 5.8846726
94.323997 -16.908701 5.9524522
94.67717 -16.915268 5.98142
68.737984 -15.600032 5.6280622
68.909393 -15.336782 5.5562615
59.878777 -10.045227 5.7255888
47.303299 17.814259 5.5746346
47.331646 18.382864 5.6146102
47.342888 18.541204 5.6252789
47.432812 20.218111 5.7595935
47.455326 20.552837 5.7878566
47.490208 21.306313 5.8593082
47.507946 21.692652 5.8977394
52.320435 49.833626 5.8503447
42.824783 74.757111 5.6678686
43.203968 74.752518 5.6340957
43.778381 74.569389 5.57054
44.055107 74.776283 5.5608039
44.292301 75.107071 5.5633402
44.514015 75.451157 5.5682049
44.802528 75.654968 5.557312
45.149178 75.717392 5.5313349
45.301178 76.263596 5.5567274
45.477295 76.762016 5.5766482
45.853401 76.757294 5.5434318
46.758049 77.961769 5.5500426
46.921158 78.200645 5.5528235
47.057404 78.517845 5.5635233
49.431393 81.153519 5.5457368
49.590572 81.503784 5.5570159
85.956573 -44.193989 6.3755322
60.991886 -21.786369 6.4891119
90.251984 -21.636467 6.4886293
90.258499 -21.210289 6.4135756
90.284607 -20.683798 6.3221254
86.919846 -20.019505 6.0652885
90.30336 -20.308922 6.2573233
90.331085 -19.65675 6.1450348
90.341751 -19.27187 6.0788345
96.815216 -17.659809 6.2722902
98.651459 -17.786963 6.454834
96.846367 -17.245926 6.2132955
98.740959 -17.211296 6.3807001
99.272423 -17.036402 6.4067025
99.811752 -17.062162 6.4629006
100.13323 -17.086109 6.4979935
94.874115 -16.942513 6.0014453
95.163994 -16.861063 6.012598
95.602562 -16.850483 6.0473809
96.869118 -16.949814 6.1714392
97.239571 -16.934515 6.2022824
47.400845 18.220594 6.4484639
47.406433 18.586323 6.480773
52.32756 52.239971 6.1723051
40.659355 77.779327 6.0723639
86.799118 -23.696247 6.7471838
90.518501 -23.339813 6.8037329
90.236465 -21.904995 6.5355663
99.311554 -21.057911 6.9958286
101.74809 -18.336956 6.8313127
102.19926 -18.34956 6.8787203
102.76637 -18.375956 6.9406128
103.22868 -18.39086 6.9908075
47.47625 19.359207 6.5353723
47.321793 19.733444 6.6229844
47.353378 20.042721 6.6463442
47.529976 20.847237 6.6825008
47.575516 21.258102 6.7174606
47.600315 21.7759 6.7738099
47.631664 22.289364 6.8300257
47.666946 22.759151 6.8817315
47.678776 23.065704 6.9198756
51.100876 46.922607 6.9593182
51.285797 47.277836 6.9901848
51.550507 47.472527 6.9837952
51.704163 47.603191 6.9831438
52.231342 47.724194 6.9281082
52.761826 47.839619 6.8725619
53.049431 48.116684 6.8783045
53.251633 48.746933 6.9551029
105.35513 -18.512123 7.2354841
105.63673 -18.547363 7.2711067
106.261 -18.563875 7.3429551
106.61804 -18.546238 7.3810797
103.82867 -18.415195 7.0574312
104.1881 -18.423883 7.0970454
104.84519 -18.497551 7.1776838
105.08561 -18.497662 7.2039919
106.76352 -18.333916 7.3715301
47.436211 17.818436 7.2843232
47.455692 18.183336 7.3122511
47.484104 18.819677 7.3667297
47.500145 18.869205 7.3662271
47.518414 19.240026 7.3998895
47.541019 19.732159 7.4474468
47.565327 20.098175 7.4819198
51.254101 47.326752 7.0027647
51.739815 47.935799 7.0324459
52.886696 49.335419 7.1029425
53.261974 49.029133 7.0005198
53.226593 50.185532 7.1982279
53.22673 50.689781 7.2825441
109.3694 -17.529469 7.5852709
47.567978 20.350861 7.5116143
47.604507 20.724085 7.5454903
47.623985 21.144592 7.592948
47.655872 21.740545 7.6622353
47.686203 22.254179 7.7240372
47.717979 22.858202 7.8015761
44.98156 76.527122 7.9550543
42.763416 76.386833 8.1666403
43.037685 76.318535 8.131465
43.892689 76.109711 8.0224924
44.083794 76.256851 8.0182114
43.205338 76.522972 8.1353636
86.44574 -34.413643 8.8154697
86.402901 -36.587341 9.2454042
89.481415 -18.134651 -4.2507081
89.5625 -17.84894 -4.2402687
89.607773 -17.364269 -4.2162924
89.641228 -16.870386 -4.1909695
89.774231 -16.422379 -4.1748729
90.243462 -16.409554 -4.2056694
90.743263 -16.436888 -4.2406926
91.186241 -16.377237 -4.2669539
91.273567 -15.754617 -4.2377357
91.301804 -15.18626 -4.2075768
91.354904 -14.781146 -4.1882358
91.419983 -14.275901 -4.163991
91.736237 -13.811118 -4.1585803
92.090614 -13.185712 -4.1464391
92.680893 -13.200148 -4.1860633
93.04351 -13.360432 -4.2189984
92.196426 -12.881054 -4.1360593
92.28421 -2.7588859 -3.5541966
92.69458 -2.5984814 -3.5705097
93.186241 -2.6057072 -3.6018448
93.613495 -2.6150198 -3.6292129
96.73082 -0.77565575 -3.7114708
97.36731 -0.72886372 -3.7477639
92.974869 11.482283 -3.5362692
91.429146 50.31456 -3.7225718
90.951622 50.980064 -3.6654987
91.24247 50.79229 -3.7007594
90.694946 51.231571 -3.6349742
90.46431 51.639076 -3.6084909
90.346542 52.280411 -3.5971296
89.965431 52.894733 -3.5544639
90.220901 52.767696 -3.584374
90.212372 53.043842 -3.5847771
90.298874 53.778957 -3.5990624
90.319763 55.374958 -3.6109507
90.721603 56.631325 -3.6662121
85.170029 -44.037018 -3.1594291
85.371712 -43.986069 -3.171186
83.170105 -42.993965 -3.0104666
89.163773 -28.801426 -3.0775609
89.183029 -28.402752 -3.0696366
70.38723 -24.979343 -3.2509353
70.53051 -24.749466 -3.2495227
70.733925 -20.355 -3.0298338
94.15377 -18.093538 -3.0672197
96.048065 -18.166399 -3.1555898
94.25676 -17.722578 -3.0616515
96.091248 -17.589901 -3.1408496
94.310799 -17.30055 -3.0522985
94.914261 -17.269779 -3.078866
95.116203 -17.295254 -3.0887086
96.678802 -17.360573 -3.1600909
98.189636 -16.813936 -3.2088673
98.70694 -16.829966 -3.231245
99.12204 -16.837376 -3.2489007
82.467751 -8.5506554 -3.2415781
79.363289 -8.1410732 -3.0041304
79.734802 -8.0624647 -3.025809
80.016678 -8.0155907 -3.0429039
81.808861 -8.0743713 -3.1700845
82.153023 -8.3462324 -3.2087133
80.269348 -7.8919649 -3.0536995
80.727341 -7.767314 -3.0786109
81.232872 -7.861886 -3.1187308
81.555809 -7.8752174 -3.141706
71.348114 -4.7556839 -3.0080276
71.758934 -4.6801596 -3.0332339
72.247383 -4.6244898 -3.0663958
72.670486 -4.5311098 -3.0912831
73.03833 -4.5323639 -3.120333
72.878769 -4.4869413 -3.1037445
73.283012 -4.3800626 -3.1261768
73.772621 -4.343082 -3.1617064
74.247734 -4.2350979 -3.1899955
74.690857 -4.1214995 -3.2154169
74.918388 -3.9313583 -3.2169008
75.246605 -3.8680093 -3.2377579
75.772156 -3.6453741 -3.2606518
76.094856 -3.5447388 -3.2780049
76.337914 -3.4541469 -3.2898471
76.760742 -3.3074305 -3.3115313
77.25309 -3.1316705 -3.3365505
77.735374 -2.9248993 -3.3582482
78.228073 -2.6536098 -3.3754048
78.731636 -2.4105823 -3.3961847
79.258591 -2.2200296 -3.4237533
79.666946 -2.0405145 -3.4425178
91.245537 -2.0061913 -3.4439862
79.902214 -1.9305872 -3.4528427
80.039536 -1.8694096 -3.4591532
72.821159 2.4734714 -3.0078342
72.998093 2.5130892 -3.0183692
73.253311 2.5640745 -3.03458
73.742317 2.6373031 -3.0692556
74.239601 2.6991527 -3.1069193
74.741982 2.7561812 -3.146524
75.15847 2.9185617 -3.1660664
75.421158 3.042011 -3.1762176
75.750031 3.1360159 -3.1966522
76.233871 3.2806256 -3.2266679
76.620674 3.3888526 -3.2521319
72.743935 5.7342362 -3.0154283
73.243439 5.840765 -3.0487597
73.747429 5.938818 -3.0858164
74.250175 6.061265 -3.12096
74.723122 6.1628418 -3.1578441
74.75 7.154953 -3.0103393
72.433563 7.7834272 -3.0081551
72.756142 7.8703341 -3.0277851
73.020317 7.978756 -3.0376034
73.065231 8.0007629 -3.0387287
71.976562 9.1092396 -3.0028157
72.255592 9.1295872 -3.032064
72.601364 9.2302122 -3.0530257
72.378288 10.478442 -3.0048449
72.480988 10.519928 -3.0094712
72.600845 10.58201 -3.0118804
72.473938 11.445539 -3.0055876
72.527916 11.483578 -3.0042861
72.663452 11.54952 -3.01016
88.893509 11.647904 -3.1429121
89.235779 11.842011 -3.1601095
90.372856 11.729163 -3.2747307
72.454926 12.191604 -3.0017025
72.654144 12.298867 -3.0104024
89.631592 12.928943 -3.1153061
89.645691 13.21249 -3.0954685
89.68 13.838895 -3.0521853
89.704552 14.258493 -3.0235271
86.121246 17.393465 -3.0323956
86.218216 17.635736 -3.0280252
86.793839 18.882088 -3.0182455
86.860306 19.249378 -3.0029178
87.015701 19.509613 -3.006216
90.74572 21.762213 -3.3462324
84.200897 22.213324 -3.0265503
90.76593 22.224085 -3.3215058
84.167313 22.569674 -3.0067234
90.787712 22.754982 -3.2934844
90.80703 23.225674 -3.269176
84.64064 23.99859 -3.028883
90.839882 23.683926 -3.2477393
84.652252 24.194363 -3.0241785
90.868469 24.174295 -3.2244606
90.907997 24.730091 -3.1996045
90.933281 25.273792 -3.1741707
90.949249 25.531925 -3.1627874
75.935616 27.239616 -3.0078163
76.060501 27.131887 -3.0198159
77.958076 29.980762 -3.0802197
78.149628 29.793657 -3.0997093
88.434708 29.775311 -3.4517727
77.421181 30.473875 -3.0275116
77.708443 30.232283 -3.0566351
77.236839 30.635553 -3.0101426
81.874252 34.865856 -3.2566922
82.085815 34.647762 -3.2810049
81.379593 35.400757 -3.2025952
81.607346 35.132099 -3.2264354
80.92144 35.873894 -3.1542499
81.136398 35.652424 -3.1766772
80.38176 36.379627 -3.0983515
80.676689 36.131054 -3.1295626
79.804176 36.833549 -3.0383794
80.141678 36.572441 -3.0732031
79.427063 37.190201 -3.0031106
79.536209 37.069027 -3.0124483
88.806793 52.221745 -3.4130015
89.122208 52.367996 -3.4511938
89.470024 52.568207 -3.493629
88.879318 54.668297 -3.4377759
89.021904 55.450844 -3.4599771
88.88884 55.517345 -3.4451041
88.939255 56.307327 -3.456944
89.113464 56.319656 -3.4770627
88.240097 60.46339 -3.4145894
106.2377 74.392097 -3.2337952
107.7363 74.117767 -3.3985019
106.12085 74.62706 -3.2153416
107.73141 74.959549 -3.3751345
107.60782 75.188393 -3.3559687
108.05029 75.008034 -3.4073679
105.10622 75.666458 -3.082623
107.60896 75.63559 -3.3440561
86.386604 -23.147997 -2.7950668
86.660309 -23.216461 -2.8119624
89.476471 -23.13179 -2.9636381
89.623146 -23.077721 -2.9701378
89.480331 -22.283283 -2.9436159
89.521515 -21.669933 -2.9310508
89.541122 -21.227043 -2.9213789
86.184128 -20.779194 -2.730397
89.539749 -20.753126 -2.9097962
89.575958 -20.185907 -2.8978152
86.250259 -19.82119 -2.7121811
89.597046 -19.758301 -2.8883953
70.838333 -19.253628 -2.978817
86.297417 -19.436871 -2.7059307
89.62236 -19.324646 -2.8789725
89.662277 -18.799522 -2.8679509
70.938095 -18.263802 -2.9334083
86.411339 -18.21701 -2.6837983
86.775185 -18.192598 -2.7027557
89.658081 -18.237226 -2.8536601
89.691956 -17.733929 -2.8426771
92.423088 -17.742218 -2.9763744
71.087784 -17.189781 -2.8872619
89.715836 -17.218042 -2.8307734
92.437279 -17.375286 -2.9671631
92.732414 -17.178394 -2.9757435
93.162277 -17.174725 -2.9957719
89.735573 -16.706951 -2.8186843
89.883255 -16.422022 -2.8186393
90.287354 -16.433969 -2.8387601
90.779839 -16.451103 -2.863147
91.276733 -16.473045 -2.8876512
71.308044 -15.37484 -2.8067734
71.518547 -15.082245 -2.8069885
71.607239 -14.625593 -2.7892263
93.849884 -14.621438 -2.9549189
94.381371 -14.642866 -2.9790766
93.865318 -14.198191 -2.9432719
94.344299 -14.165562 -2.9633729
71.648964 -13.367249 -2.7250097
71.822441 -12.741493 -2.7045472
93.711044 -12.684114 -2.8916698
72.098152 -12.232841 -2.6979933
94.112587 -12.446511 -2.9018216
72.354057 -11.731921 -2.6903143
72.612038 -11.144188 -2.6780856
72.865532 -10.799788 -2.6785042
73.129921 -10.552279 -2.6848743
73.39502 -10.347899 -2.6935568
73.658081 -10.141437 -2.7019236
73.875015 -9.9610491 -2.7082415
74.222641 -9.7493439 -2.7224321
74.570114 -9.5619535 -2.737843
74.835938 -9.4413452 -2.7507856
75.276527 -9.292119 -2.7748499
75.766563 -9.1100569 -2.8005934
76.092865 -9.0770254 -2.8223996
76.347816 -8.9536076 -2.8341115
76.75724 -8.8637142 -2.8586724
77.262062 -8.7605276 -2.8892138
77.761612 -8.6343288 -2.917963
78.115143 -8.53936 -2.9378986
78.381775 -8.4511366 -2.9519708
78.744347 -8.3539639 -2.9722617
79.095947 -8.2331886 -2.9904101
63.876923 -5.91436 -2.5536182
64.253288 -5.7498946 -2.5662048
64.814087 -5.5509601 -2.589165
89.958221 -5.7954092 -2.5211787
90.033768 -5.8808289 -2.5270119
64.693115 -5.4916344 -2.5751748
65.249001 -5.3576546 -2.6036632
65.747437 -5.293499 -2.6343253
66.235626 -5.2632279 -2.6674099
66.741684 -5.2867637 -2.7067559
67.271095 -5.1575961 -2.7345054
68.301071 -5.0124822 -2.7985039
89.932472 -5.3728962 -2.5067601
90.486595 -5.4482861 -2.5318499
90.932419 -5.1479645 -2.5400784
91.03981 -5.1065197 -2.5430064
92.262451 -5.1273308 -2.5918279
94.188583 -5.1139507 -2.6647091
96.257057 -5.0655494 -2.7386589
96.614334 -5.0510883 -2.750911
68.25943 -4.9540348 -2.7901926
68.758751 -4.9660048 -2.8288
69.257965 -4.9651666 -2.8664603
69.751976 -4.9619975 -2.9037113
70.249786 -4.883203 -2.9347475
70.743629 -4.824738 -2.9674752
71.082695 -4.7831321 -2.989928
90.252625 -4.8075552 -2.5016203
90.866692 -4.6969147 -2.522583
91.834831 -4.8547573 -2.565948
92.348572 -4.9050584 -2.5875783
92.798233 -4.8056922 -2.6014018
93.169479 -4.7010489 -2.6118536
94.757004 -4.6994214 -2.6708014
95.254639 -4.5271912 -2.6826129
96.706886 -4.7379985 -2.7423983
97.1838 -4.6603031 -2.7562447
97.571129 -4.7375927 -2.7727497
98.169922 -4.742794 -2.7937305
90.865234 -4.3977709 -2.5125761
91.12291 -4.365633 -2.521626
95.031502 -4.480854 -2.6728292
99.87252 -4.4354916 -2.8394117
100.82098 -4.4781609 -2.8726687
92.69117 -3.6018829 -2.5550356
92.703476 -3.3973331 -2.5481708
96.250465 -1.0261879 -2.5803277
96.233665 -0.7468338 -2.5682073
65.862778 1.7074747 -2.5833881
66.247223 1.7830462 -2.5985789
66.752739 1.8067551 -2.6284704
67.25724 1.8557472 -2.655997
67.744347 1.868824 -2.6875787
68.123764 1.8977842 -2.7103865
68.787697 1.8855835 -2.7593157
69.236191 1.858603 -2.7955573
69.660728 1.9507185 -2.8158915
69.922249 2.0201404 -2.8271503
70.262924 2.0880246 -2.8450325
70.75351 2.1603978 -2.8746016
71.24025 2.222821 -2.9059739
71.751518 2.3024905 -2.938096
72.263809 2.3760402 -2.9720147
72.596718 2.4239359 -2.9945214
68.46434 2.8167214 -2.6207275
68.571693 2.6427567 -2.6499243
82.98053 4.965333 -2.5085926
83.041626 4.993392 -2.5108004
67.774063 5.4762459 -2.661757
68.246498 5.4598608 -2.6938429
68.758064 5.4543576 -2.7284756
69.244652 5.4501133 -2.7631052
69.749916 5.4673486 -2.7975261
70.212135 5.4900308 -2.8295801
66.746574 5.5914721 -2.5852597
67.243294 5.5414619 -2.6203651
67.529999 5.5096283 -2.6418605
70.381325 5.5093598 -2.8399575
70.756035 5.5162487 -2.8695409
71.260017 5.5225301 -2.9114258
71.746239 5.5511417 -2.9500885
72.249832 5.6125746 -2.9870043
74.540169 7.1089954 -2.9931366
66.917816 7.9908628 -2.560643
67.233116 7.9490418 -2.5812848
67.740417 7.8692131 -2.6194527
68.249535 7.7393265 -2.6708746
68.752388 7.6581626 -2.7160237
69.244263 7.6224303 -2.7549741
69.738976 7.6300511 -2.7888544
70.247574 7.6384749 -2.8269625
70.757454 7.6388021 -2.8701563
71.254097 7.6471992 -2.9139464
71.753754 7.6748857 -2.9574952
72.181145 7.7498837 -2.9873435
82.129005 7.9417562 -2.8113055
82.58036 7.8302932 -2.8612359
88.905884 7.9948635 -2.6880519
66.312965 8.0881252 -2.5217004
66.668999 8.0363092 -2.5430734
82.394928 8.3367481 -2.8032277
82.516525 8.0907173 -2.83425
89.045509 8.1710739 -2.6852734
72.934151 8.7193356 -2.8873324
73.258827 8.8670206 -2.8993301
73.522621 8.9950113 -2.9085906
80.357368 8.9447746 -2.5692728
73.784332 9.1303082 -2.9178138
74.036026 9.3921051 -2.9035861
76.892616 9.4765377 -2.9454405
80.374489 9.1056423 -2.5576534
81.050301 9.3313484 -2.6004593
82.680527 9.4000626 -2.7434289
83.103394 9.4845581 -2.7753525
66.353607 9.6969433 -2.5195386
66.533447 9.6489058 -2.5314898
72.629707 9.7829466 -2.9331932
73.914055 9.7332687 -2.8250692
74.130898 9.6374264 -2.8722675
76.851776 9.6694174 -2.7555902
81.694725 9.8768568 -2.6151066
82.656296 9.7501783 -2.7132108
85.440979 9.8238583 -2.9633784
85.828018 9.9097309 -2.9923673
90.791321 9.9665785 -2.6740258
72.17646 10.421406 -2.9904165
72.819977 10.139547 -2.8803194
73.248474 10.368676 -2.8924148
73.935707 10.361871 -2.7150538
74.133255 10.379511 -2.7401004
74.515236 10.320442 -2.8060179
75.800835 10.390253 -2.671416
76.057808 10.265774 -2.7234299
77.246475 10.462584 -2.8629503
83.236244 10.037808 -2.7434928
85.122253 10.415142 -2.88761
90.814079 10.039919 -2.670583
72.68174 10.82788 -2.9619648
73.800499 10.705369 -2.8708436
74.051178 10.808456 -2.753257
74.57827 10.98611 -2.7005317
75.423973 10.546968 -2.5989442
75.65136 10.671126 -2.612745
76.374855 10.933077 -2.677393
76.916763 10.711458 -2.7834496
84.189537 10.905612 -2.7630653
72.286011 11.389623 -2.989352
72.811089 11.289949 -2.8670726
73.035995 11.467921 -2.8611858
73.974792 11.385998 -2.5404875
74.150093 11.246174 -2.80619
75.90329 11.073518 -2.5925479
76.38546 11.362986 -2.6226897
76.522041 11.377782 -2.6401846
84.220573 11.143456 -2.7474046
89.739525 11.302962 -2.5235837
93.167358 11.151607 -2.7368155
72.74511 11.830803 -2.9461088
73.28492 11.599461 -2.8738952
73.763969 11.821438 -2.8747525
74.254433 11.738352 -2.748287
76.418701 11.844902 -2.5654109
76.669838 11.74194 -2.6152167
72.307884 12.132194 -2.9908447
72.846062 12.241591 -2.8720729
73.129799 12.412243 -2.8646367
74.15921 12.268511 -2.851836
76.369911 12.031601 -2.53462
76.705254 12.243411 -2.5579576
86.250923 12.239217 -2.8516767
72.810387 12.787926 -2.8958406
73.378868 12.56084 -2.8797462
73.749458 12.805511 -2.8884885
74.191544 12.739353 -2.658946
74.504585 12.681168 -2.8760002
76.765434 12.647043 -2.518079
83.32943 12.889864 -2.5299909
84.175209 12.682039 -2.6245894
87.440201 12.577668 -2.9369385
72.936104 13.048528 -2.8483
73.241272 13.277032 -2.8608577
73.635056 13.35775 -2.8876255
74.170448 13.228999 -2.794383
74.527496 13.182969 -2.7783895
85.985229 13.063919 -2.7644315
73.778168 13.699878 -2.8951325
74.237404 13.780497 -2.7446322
75.263229 13.995237 -2.804383
80.702614 13.900158 -2.6043155
81.183182 13.634058 -2.6884177
84.319901 13.838388 -2.5506444
85.065834 13.568031 -2.6406353
86.050171 13.843367 -2.7120719
74.242645 14.201274 -2.7838449
74.675041 14.276573 -2.7910409
75.213829 14.119759 -2.7708828
80.385643 14.208558 -2.5375211
80.675934 14.218018 -2.573791
84.888908 14.388904 -2.5628176
86.775467 14.302444 -2.745872
88.466461 14.231379 -2.9095163
74.358131 14.783638 -2.7715685
74.632729 14.710492 -2.7580988
78.783478 14.934012 -2.5955262
80.766823 14.526272 -2.5594747
81.161163 14.741467 -2.5922847
86.011658 14.936973 -2.6275475
89.73259 14.812726 -2.9855013
74.303886 15.232321 -2.5917745
74.625809 15.25154 -2.8275623
81.224228 15.237769 -2.5603044
81.846886 15.232162 -2.6409111
82.153572 15.267002 -2.6776052
89.750381 15.227447 -2.9569299
74.31636 15.80195 -2.625633
74.667007 15.766525 -2.7221336
81.906395 15.849164 -2.6004727
82.11245 15.65903 -2.6416781
85.818802 15.910046 -2.5385222
89.775276 15.766736 -2.920171
74.303757 16.264887 -2.5670121
74.697334 16.36784 -2.5063717
81.892006 16.157339 -2.5752265
82.215965 16.329094 -2.6042435
82.720062 16.221012 -2.6774094
83.069603 16.381845 -2.7106271
89.805122 16.251024 -2.8880708
74.321136 16.747223 -2.5214427
82.276863 16.526121 -2.5975146
83.167068 16.722126 -2.6983163
89.833183 16.769224 -2.8535948
74.393242 17.115755 -2.5167346
83.661942 17.298021 -2.7211602
89.871826 17.362549 -2.8150213
74.442802 17.591692 -2.5076346
74.622131 17.836277 -2.5617535
75.157669 17.836824 -2.7482133
80.846771 17.824087 -2.7099333
82.237465 17.737122 -2.5066152
82.716034 17.975159 -2.552217
84.220924 17.918594 -2.7504406
86.170197 17.963072 -2.9992573
89.889893 17.708563 -2.7922614
74.486351 18.35887 -2.5079002
74.528648 18.372263 -2.5221956
75.154922 18.02165 -2.7416334
80.952232 18.120186 -2.7082911
81.10778 18.373037 -2.7181873
82.415466 18.082283 -2.5062146
82.505112 18.179464 -2.5112996
83.686172 18.167248 -2.6646309
85.729156 18.099649 -2.9329784
89.917603 18.269762 -2.7554059
74.470123 18.792063 -2.5084536
74.546432 18.760904 -2.5328629
81.217155 18.72632 -2.7150733
89.948624 18.830326 -2.7191753
90.087921 18.906973 -2.7269113
74.478989 19.237938 -2.5264401
74.559685 19.276936 -2.5540724
78.482666 19.452936 -2.548403
78.745544 19.360838 -2.6038287
79.214233 19.264767 -2.7002146
81.307365 19.228483 -2.7013013
86.738571 19.232113 -2.9883485
90.647255 19.329039 -2.7500994
74.492294 19.568287 -2.5469623
74.53978 19.772453 -2.574487
78.383194 19.892117 -2.5135241
79.428879 19.674696 -2.7257447
79.530571 19.936592 -2.7358191
80.380669 19.844116 -2.5186095
81.450447 19.605469 -2.7044201
81.640732 19.755909 -2.7275734
86.370819 19.766376 -2.907012
86.987686 19.566263 -2.999001
90.680786 19.768875 -2.7228851
74.634132 20.250952 -2.6377454
79.656578 20.170034 -2.7522793
81.931412 20.007616 -2.7619333
82.344933 20.158482 -2.8214731
82.632317 20.3263 -2.8597329
86.286942 20.210157 -2.8687584
87.06852 20.405499 -2.9570398
90.706284 20.175026 -2.6973755
74.653664 20.71979 -2.6835916
79.217705 20.832872 -2.6478314
79.727348 20.780367 -2.7472165
82.485092 20.617617 -2.821785
82.864281 20.701725 -2.8790703
83.245712 20.962521 -2.9283502
84.049232 20.650164 -2.5560434
87.053314 20.621637 -2.9419391
74.725578 21.275417 -2.705791
79.43232 21.068674 -2.6831541
79.688805 21.233744 -2.7283094
83.229599 21.266592 -2.9119592
83.704605 21.416199 -2.981482
90.758934 21.264565 -2.6281421
74.682014 21.740599 -2.6941822
79.473877 21.881968 -2.6750793
79.754288 21.739532 -2.7302935
83.799538 21.553761 -2.990598
85.145111 21.561653 -2.643436
90.781212 21.824036 -2.5925071
74.645302 22.256662 -2.7457721
79.322281 22.193949 -2.6425166
79.514763 22.00317 -2.6808553
83.112419 22.471531 -2.8432689
83.690346 22.216457 -2.9450293
90.795906 22.068939 -2.5774436
73.957291 22.553438 -2.7191224
74.353012 22.749533 -2.8340008
74.631378 22.623913 -2.7198739
75.041 22.58234 -2.7133019
79.142624 22.897551 -2.6033092
83.90123 22.72616 -2.9584587
86.53392 22.557409 -2.7643299
90.856766 22.975668 -2.5226753
73.921242 23.417778 -2.8397763
74.100952 23.175442 -2.8438454
74.707794 23.235493 -2.7055857
79.26828 23.278395 -2.6244397
83.82148 23.253378 -2.9264438
86.691238 23.260567 -2.7463965
90.859802 23.170015 -2.5100846
73.790138 23.63406 -2.8449557
75.270119 23.662476 -2.8769488
79.227425 23.608942 -2.6165364
83.815514 23.779228 -2.9073658
73.412888 24.479399 -2.9068043
73.805496 24.357971 -2.964999
74.911263 24.2745 -2.7366414
79.557236 24.467861 -2.6761699
82.986816 24.325245 -2.7622278
84.189056 24.365168 -2.9466341
84.520851 24.318924 -2.9996099
85.261726 24.419136 -2.5090091
85.791771 24.480728 -2.5717781
87.861534 24.491205 -2.8293564
88.125847 24.453926 -2.864368
71.993729 24.994289 -2.757834
72.249947 24.914974 -2.7820249
72.741226 24.740078 -2.8303239
73.163147 24.578173 -2.8766973
73.677628 24.551287 -2.9708033
74.830139 24.807163 -2.8517287
75.021317 24.949705 -2.6285386
76.945625 24.948385 -2.6233566
79.473572 24.536341 -2.66186
79.606529 24.587713 -2.6852555
80.73954 24.949533 -2.8852069
81.400368 24.605331 -2.5139511
84.285843 24.734772 -2.9502945
85.726334 24.807974 -2.5478864
86.112198 24.976286 -2.5875094
87.880402 24.684071 -2.8219283
68.9235 25.20513 -2.5042322
69.249031 25.227362 -2.52531
69.742157 25.263962 -2.5640349
70.25145 25.272898 -2.6067436
70.746719 25.248043 -2.6498566
71.236534 25.175188 -2.6912293
71.73494 25.068417 -2.7353766
74.870842 25.245651 -2.8064873
77.130714 25.103321 -2.6645195
79.265327 25.351627 -2.632452
79.956146 25.470894 -2.7510867
80.235672 25.169712 -2.7977285
80.636551 25.016239 -2.8671405
82.31633 25.217594 -2.6374707
85.467278 25.060287 -2.5038438
85.681229 25.205812 -2.5233905
73.925705 25.956659 -2.8966811
74.248779 25.774689 -2.9293203
74.634995 25.573584 -2.9742022
79.520889 25.656246 -2.6787486
80.023071 25.649017 -2.7639928
82.401558 25.655224 -2.6405115
72.888626 26.464142 -2.8032973
73.24865 26.31308 -2.8360469
73.674171 26.097549 -2.8737748
70.888123 26.984459 -2.6356189
71.243973 26.938604 -2.6656797
71.746567 26.817589 -2.7042511
72.2547 26.663244 -2.7447553
72.645981 26.544342 -2.7801864
80.882721 26.96521 -2.9228504
81.199829 26.837107 -2.97525
69.305679 27.046564 -2.5164995
69.752876 27.063717 -2.5498531
70.253036 27.045322 -2.5866678
70.648346 27.014639 -2.6171134
75.742821 27.396877 -2.9893246
81.883133 27.141155 -2.5379562
74.969711 27.963348 -2.918026
75.262688 27.763756 -2.9450874
75.564499 27.539934 -2.9727542
73.964447 28.480232 -2.8222861
74.254349 28.361137 -2.8512621
74.717964 28.115713 -2.8947163
72.858078 28.963436 -2.7303307
73.256821 28.817326 -2.7642047
73.723602 28.616915 -2.8039744
70.484406 29.495373 -2.5454037
70.761246 29.454107 -2.5649052
71.250252 29.393555 -2.6035028
71.733383 29.301474 -2.6415665
72.251022 29.159533 -2.6814287
72.616882 29.047007 -2.7107136
69.924767 29.524887 -2.5034468
70.226509 29.519859 -2.5269289
76.90831 30.926544 -2.9807673
77.056946 30.809082 -2.9947872
76.337914 31.363001 -2.9292169
76.668907 31.11318 -2.9587748
75.438774 31.968657 -2.8514786
75.756371 31.810827 -2.8819854
76.07354 31.567564 -2.9071016
74.401245 32.43219 -2.7566693
74.760811 32.286079 -2.7893443
75.190918 32.098824 -2.8292296
72.844063 32.963001 -2.6240196
73.247307 32.849125 -2.6578906
73.75341 32.695702 -2.7018416
74.146545 32.553104 -2.7359421
71.388351 33.276497 -2.5078199
71.749054 33.221745 -2.5366464
72.241699 33.110619 -2.5749087
72.599487 33.029869 -2.6041718
82.337349 34.738926 -2.555445
82.20034 35.275898 -2.5387421
82.254257 35.769543 -2.546411
79.2173 37.388115 -2.9841266
78.399239 37.938629 -2.904382
78.735252 37.736656 -2.9375889
79.045654 37.569283 -2.9696302
77.76107 38.345818 -2.8448455
78.156876 38.075768 -2.8806639
76.967911 38.957386 -2.7796886
77.236519 38.760368 -2.8017101
77.501251 38.560593 -2.8235621
76.29528 39.350117 -2.7223794
76.723824 39.101101 -2.7586231
75.316589 39.909588 -2.6437359
75.760132 39.675407 -2.6795526
76.058105 39.535095 -2.705034
74.294868 40.400753 -2.5636272
74.754539 40.192482 -2.5995114
75.054062 40.046288 -2.6230202
73.475182 40.782845 -2.5032129
73.753105 40.668365 -2.5240448
74.030319 40.549858 -2.5449474
80.285439 54.22617 -2.5023096
80.554413 54.715065 -2.5357404
80.81588 55.139149 -2.5675972
81.227348 55.793633 -2.61765
81.55188 56.176872 -2.6554656
81.99408 57.162315 -2.7130802
99.204834 71.205574 -2.5915337
71.443832 -48.569481 -2.2947679
71.672859 -48.607658 -2.3126302
72.617317 -30.708347 -2.0517151
60.344055 -20.147167 -2.2056239
60.580627 -20.264248 -2.2310131
64.356155 -14.323956 -2.212574
64.272133 -13.569681 -2.1653316
62.901825 -13.306286 -2.0417733
63.186962 -13.245389 -2.0613277
63.838505 -13.273817 -2.1149063
64.101158 -13.3349 -2.1391051
78.875504 -12.516031 -2.1275806
77.102364 -12.01754 -2.0070417
79.14006 -12.113844 -2.1352696
78.835312 -11.836436 -2.1110482
79.14962 -11.647184 -2.1260881
79.825829 -11.671374 -2.1668804
79.252945 -11.124315 -2.1212728
79.897087 -11.247246 -2.162024
82.357315 -11.444391 -2.3063788
82.935974 -11.281085 -2.3342648
82.53006 -10.776827 -2.300519
79.393311 -9.377409 -2.0923736
79.654907 -9.2381716 -2.1045816
80.247627 -9.0183115 -2.1337821
79.898354 -8.9166861 -2.1116087
80.335144 -8.9748154 -2.1377845
89.929489 -5.0693798 -2.496958
90.19986 -4.7507381 -2.497663
68.690948 2.4575663 -2.1656282
68.442215 2.5003204 -2.1432731
68.59639 2.7745407 -2.1304755
80.22435 3.6545568 -2.4073532
66.63253 4.9748631 -2.232368
82.253311 4.8137722 -2.471319
66.671295 5.3479295 -2.1892333
66.697083 5.7436109 -2.142555
66.770355 6.1966267 -2.0918446
77.613441 6.3019447 -2.0849624
66.780373 6.7884827 -2.2277801
82.375824 6.8520985 -2.3582475
66.683861 7.3180313 -2.3130162
82.235603 7.2801414 -2.3237801
82.148125 7.8224006 -2.2856328
83.239777 7.9773579 -2.3438306
83.642181 7.6373596 -2.3894496
66.828568 8.239583 -2.1772909
82.327583 8.1192341 -2.2787788
83.299309 8.0421696 -2.3435354
83.611748 8.0385399 -2.3630023
66.872574 8.7670193 -2.0979607
79.247742 8.5642691 -2.0594702
83.498528 8.9295053 -2.3010807
66.906013 9.2228279 -2.0293646
77.576912 9.2076435 -2.2987263
78.768005 9.4891109 -2.3815303
80.942123 9.3422127 -2.1185827
81.266663 9.2050419 -2.1470072
66.906219 9.941927 -2.1942844
73.693855 9.794569 -2.3198426
76.772575 9.7144527 -2.2280669
77.020477 9.6260338 -2.2144046
77.946602 9.9221992 -2.2721398
78.845146 9.5927582 -2.3799114
79.26358 9.5858698 -2.4181087
85.469254 9.6937637 -2.3727448
66.943077 10.280425 -2.1326425
73.82148 10.236259 -2.2914402
74.132141 10.475254 -2.1646492
74.858513 10.353748 -2.2283044
75.327225 10.467573 -2.1645663
75.705818 10.431064 -2.1854546
76.145447 10.16823 -2.2545123
76.960617 10.109298 -2.1686671
77.154121 10.276498 -2.1719639
77.870544 10.048786 -2.2548611
79.513977 10.368881 -2.376812
85.139572 10.294122 -2.3146222
66.981361 10.712205 -2.0540645
67.010643 10.965347 -2.0083263
73.929199 10.747772 -2.3768752
74.264038 10.56676 -2.1895781
74.54911 10.667211 -2.2774551
75.185455 10.543178 -2.270088
75.932938 10.914874 -2.3123889
76.076973 10.614673 -2.3615301
76.724953 10.503233 -2.1148553
77.49173 10.623835 -2.173383
79.229622 10.780808 -2.3175871
79.574234 10.610472 -2.362709
86.345367 10.892565 -2.3483782
66.976547 11.271749 -2.1847558
67.006134 11.420977 -2.1529713
73.961159 11.182365 -2.3177245
74.179718 11.23041 -2.3253174
75.309814 11.456127 -2.458586
75.958344 11.099472 -2.2952075
76.199356 11.320729 -2.2991223
76.578094 11.423894 -2.3321571
80.440735 11.247803 -2.3907104
80.564224 11.485653 -2.3831518
67.108566 11.866392 -2.1218791
73.974182 11.81542 -2.4666259
74.193108 11.736861 -2.3788934
74.890488 11.518863 -2.392535
76.738762 11.681832 -2.3240583
77.277611 11.71002 -2.0650113
77.892609 11.597042 -2.1299722
78.380844 11.51988 -2.1806159
80.251236 11.510191 -2.3524537
80.576927 11.986357 -2.3447778
81.685226 11.813825 -2.235302
82.144958 11.956174 -2.4919991
66.978256 12.067828 -2.0163207
67.058403 12.134719 -2.1389234
74.056351 12.280766 -2.4013
76.653511 12.283361 -2.2519984
78.067871 12.268466 -2.0918713
79.446281 12.399388 -2.2080481
80.549995 12.144371 -2.329879
66.86335 12.990395 -2.3905759
67.125092 12.825344 -2.1392245
74.128296 12.791527 -2.3295884
76.492683 12.616724 -2.4805746
76.767654 12.70006 -2.3500795
77.271507 12.795381 -2.2757182
78.406082 12.956171 -2.0683308
79.319473 12.854879 -2.1605651
81.041901 12.525379 -2.3455887
87.548706 12.584505 -2.3085785
89.673904 12.884134 -2.4141035
66.71357 13.016788 -2.3961449
67.11924 13.274099 -2.1114633
74.252937 13.245334 -2.3619468
74.682709 13.40978 -2.3288372
76.775375 13.162634 -2.4592462
77.37117 13.235625 -2.2712457
77.76046 13.22997 -2.2941921
78.202255 13.277989 -2.3445837
79.609329 13.161673 -2.1634588
80.139381 13.476162 -2.1883314
85.790283 13.083437 -2.1711833
89.690186 13.226265 -2.3919437
67.152565 13.733919 -2.0926583
74.16629 13.759507 -2.3819199
74.877747 13.768551 -2.3120959
75.024696 13.971191 -2.3106771
75.954483 13.672364 -2.2741189
76.113457 13.756047 -2.2892168
76.82251 13.877968 -2.3864632
77.27256 13.877452 -2.4573569
77.926064 13.57368 -2.2826707
78.211891 13.647326 -2.3117418
78.655952 13.592709 -2.372438
81.242661 13.976248 -2.2528982
84.193008 13.841311 -2.0259509
85.975975 13.915973 -2.1261699
86.137253 13.826526 -2.1417367
89.724556 13.741241 -2.3589864
74.213173 14.269397 -2.3771474
74.669792 14.312911 -2.3986177
75.143089 14.1828 -2.3321388
75.70697 14.240731 -2.3420916
76.245941 14.065633 -2.2754011
76.788567 14.234213 -2.3430572
77.224068 14.377366 -2.3453925
77.611862 14.313086 -2.1761389
78.855591 14.181819 -2.2632153
79.118889 14.198902 -2.3771055
82.644318 14.277846 -2.3610973
84.841911 14.396149 -2.0267305
85.809357 14.45494 -2.0797205
88.428848 14.201519 -2.2512679
89.74852 14.213916 -2.3280866
63.940819 14.908485 -2.364557
64.016594 14.772962 -2.3738258
74.296959 14.782134 -2.3694894
74.618446 14.889926 -2.3030608
75.457581 14.534363 -2.3187284
75.682846 14.711802 -2.3406606
76.244446 14.637764 -2.4575167
76.962303 14.730698 -2.3201282
77.184654 14.849971 -2.3442225
79.04538 14.852131 -2.3120222
81.244125 14.963064 -2.1790118
82.71257 14.723877 -2.3342323
86.141876 14.917126 -2.0676279
87.942688 14.62327 -2.1937504
89.774292 14.768233 -2.2914586
61.961205 15.445744 -2.0543852
63.303799 15.278658 -2.1706707
63.865368 15.217889 -2.2587729
74.241959 15.270901 -2.3681912
74.831123 15.214345 -2.3079433
75.068626 15.456268 -2.3322461
75.76825 15.193435 -2.3023565
76.127357 15.281169 -2.3441186
76.791855 15.214207 -2.2457967
77.179504 15.331421 -2.29795
82.672012 15.453251 -2.2766144
89.804581 15.250774 -2.2598124
61.786987 15.746167 -2.0427792
62.993999 15.945889 -2.1367276
63.067535 15.780776 -2.1441619
63.917503 15.718596 -2.1862869
74.340675 15.742126 -2.3817773
75.232552 15.700697 -2.3423328
75.7528 15.86086 -2.353188
76.094376 15.754907 -2.308732
76.989273 15.543116 -2.2476182
77.229057 15.732224 -2.2702034
89.837387 15.872398 -2.2183909
61.407406 16.337748 -2.0305712
61.591518 16.10512 -2.0301149
62.838764 16.247559 -2.1295562
63.906151 16.246191 -2.1901438
74.336731 16.215609 -2.3760326
74.633781 16.288488 -2.3161292
75.446175 16.281734 -2.3329301
75.529243 16.223204 -2.3580086
76.089485 16.248482 -2.2621655
76.807228 16.024933 -2.1758323
77.232407 16.248831 -2.2273896
83.289856 16.151276 -2.2837639
89.859032 16.216822 -2.195488
61.264771 16.751562 -2.0131607
62.631569 16.743092 -2.1168296
63.726208 16.751133 -2.1755221
74.336594 16.749275 -2.3570173
74.858345 16.724901 -2.336556
75.355797 16.698345 -2.3266509
75.597374 16.814631 -2.3227487
76.273186 16.739704 -2.2585087
77.304688 16.755402 -2.1998203
78.685478 16.991665 -2.0993631
82.270515 16.578796 -2.157299
84.166115 16.858976 -2.3151948
85.240692 16.641645 -2.4315987
89.883186 16.674948 -2.1645944
61.180519 17.04834 -2.0006633
62.550152 17.030235 -2.1069345
63.398987 17.208879 -2.2026098
63.648476 17.119532 -2.1619303
64.110046 17.419729 -2.0560868
74.373306 17.255985 -2.4101365
74.872566 17.259296 -2.3180325
75.3284 17.260981 -2.2734139
75.744034 17.243647 -2.3266697
76.414024 17.2306 -2.2641234
76.617653 17.235001 -2.2302697
77.320541 17.234777 -2.1679246
78.685669 17.022154 -2.0972104
79.330399 17.073509 -2.1769235
84.121948 17.057028 -2.2969434
89.909729 17.334784 -2.1192842
63.861263 17.769602 -2.0860229
64.125999 17.746897 -2.0380621
74.438316 17.831432 -2.3911612
74.725998 17.68117 -2.3572767
75.072418 17.784357 -2.327121
75.659828 17.718544 -2.2781672
76.414497 17.842505 -2.2333612
76.614021 17.687281 -2.2621324
82.24086 17.696218 -2.1830802
84.174957 17.946266 -2.2391868
89.937775 17.731142 -2.0925996
63.995647 18.470137 -2.0438771
64.109177 18.223272 -2.0271671
74.439041 18.225132 -2.3907149
75.224442 18.248499 -2.3515072
75.840096 18.274851 -2.3052127
76.366241 18.251352 -2.2326288
76.636887 18.191315 -2.1628778
77.596138 18.163046 -2.1540651
82.193008 18.19289 -2.2220066
82.634445 18.01915 -2.089555
83.291153 18.026295 -2.1506667
89.970291 18.222872 -2.0591669
63.784641 18.545084 -2.0812712
64.154068 18.666874 -2.0148461
74.473145 18.758989 -2.3435194
74.515907 18.727909 -2.3368866
75.141975 18.728682 -2.3197999
75.805191 18.728638 -2.2717257
79.112404 18.959717 -2.1910069
90.275955 18.944683 -2.0248637
63.483307 19.322794 -2.1378136
63.76091 19.253412 -2.0887949
64.166817 19.333954 -2.0217867
74.47789 19.223988 -2.3346434
74.620453 19.31592 -2.3304007
75.12886 19.252108 -2.3145621
75.791504 19.23502 -2.2576368
76.365784 19.331362 -2.1396487
90.97876 19.348864 -2.0367167
91.011322 19.204208 -2.0491891
63.966816 19.696222 -2.0659101
64.192749 19.758017 -2.031687
74.490723 19.678223 -2.3543956
74.720215 19.775415 -2.3333929
75.039856 19.765539 -2.2981887
75.839043 19.746336 -2.2217758
76.662239 19.732059 -2.1856215
77.897461 19.554155 -2.430176
78.346924 19.926092 -2.1873028
82.082573 19.802937 -2.3546424
86.222633 19.923477 -2.2947295
90.988029 19.787916 -2.0051539
91.071861 19.654861 -2.0198333
63.772598 20.458687 -2.132484
64.195473 20.172159 -2.0512521
74.481934 20.085093 -2.3723025
74.740814 20.271536 -2.3495002
75.039398 20.330042 -2.3132832
75.832039 20.310493 -2.2051718
76.781654 20.397448 -2.1942413
77.404617 20.451935 -2.0175853
78.275146 20.097269 -2.4862936
86.303879 20.168058 -2.285717
63.914074 20.696474 -2.1258745
64.10125 20.845373 -2.1086352
74.753296 20.750788 -2.3626738
75.770859 20.594357 -2.2505398
76.140678 20.965248 -2.3338079
77.289764 20.909355 -2.2813916
64.174698 21.271879 -2.1320918
74.728348 21.21805 -2.3785365
75.879082 21.28908 -2.2846014
76.153015 21.154354 -2.339273
80.476486 21.474136 -2.0589898
64.311249 21.734152 -2.1565173
74.777359 21.730305 -2.3226755
75.963676 21.761854 -2.3132741
76.047462 21.831726 -2.3319523
80.439453 21.517569 -2.3215363
85.089348 21.605106 -2.0761609
63.158295 22.331797 -2.0521243
64.341232 22.254793 -2.2066226
74.68306 22.212738 -2.3352506
75.884445 22.225321 -2.3111632
83.194458 22.475922 -2.3480513
85.404312 22.409903 -2.052592
63.776291 22.973585 -2.0434542
64.375031 22.796055 -2.247936
73.982086 22.537819 -2.4065418
74.051941 22.543173 -2.3339386
74.653877 22.784513 -2.3721972
75.809647 22.686678 -2.3130386
76.95845 22.630945 -2.2151883
79.737854 22.830559 -2.3062305
86.522972 22.55262 -2.1471889
87.621048 22.854342 -2.2294762
63.474022 23.247402 -2.0937872
63.803925 23.223103 -2.0634263
64.21154 23.214556 -2.0293112
64.729851 23.26082 -2.287658
