# .PCD v0.7 - Point Cloud Data file format
VERSION 0.7
FIELDS x y z
SIZE 4 4 4
TYPE F F F
COUNT 1 1 1
WIDTH 1563
HEIGHT 1
VIEWPOINT 0 0 0 1 0 0 0
POINTS 1563
DATA ascii
43.252335 80.535011 9.6311502
45.018108 81.156799 9.5506525
48.74305 83.670662 9.5783701
48.194107 84.257141 9.7160807
51.233055 84.878456 9.5408106
47.402435 85.483597 9.9719801
51.608921 85.142601 9.5485029
40.238407 -5.5576458 10.47799
45.320427 45.633476 10.177321
107.49414 48.106213 10.131771
107.51128 48.28001 10.169373
107.5812 49.373367 10.402406
48.743202 49.947758 10.395186
107.56538 49.632095 10.452849
49.170662 50.436527 10.427127
32.156517 52.790054 10.424294
107.98347 55.978653 10.105077
107.92473 56.250252 10.154285
107.9259 56.674358 10.243061
107.96024 57.221928 10.362479
108.00841 57.685429 10.466422
108.37117 64.406418 10.001455
109.1236 75.200371 10.061443
109.12079 75.537781 10.125603
36.391975 81.065262 10.410905
36.643105 81.055809 10.382959
37.737301 81.594345 10.345234
38.077576 81.666588 10.320197
39.173851 82.423553 10.316531
45.568253 85.986137 10.216001
107.61841 49.932346 10.523766
108.01031 57.905815 10.513544
108.03395 58.25528 10.591019
108.05875 58.72617 10.695049
108.0948 59.195 10.800526
108.1219 59.673664 10.90765
108.161 60.057785 10.995996
110.43103 66.752731 10.642616
110.46022 67.328201 10.762429
110.52184 67.787712 10.861444
108.79388 68.349167 10.847011
109.13145 68.265091 10.854485
109.6635 68.231461 10.887379
110.22659 68.207466 10.925186
110.53767 68.08654 10.924125
108.82227 68.789162 10.941351
107.86261 53.071243 11.234241
108.16026 60.278084 11.044174
108.17782 60.650421 11.128056
108.22707 61.166466 11.247639
108.271 61.678802 11.366388
108.28989 62.059555 11.453463
108.8699 69.268326 11.045583
108.89597 69.738342 11.146666
108.89223 70.196381 11.243372
108.95554 70.710258 11.357025
108.98065 71.188072 11.460601
112.75961 81.030457 11.320098
107.47818 55.701275 11.767066
107.79565 55.519485 11.773827
107.56651 56.183273 11.892174
108.30017 62.301247 11.508735
107.89507 62.9263 11.605477
108.28451 62.79002 11.616986
107.83099 63.249416 11.671999
108.98547 71.51754 11.531351
109.01202 71.858223 11.606147
109.05505 72.204414 11.683384
109.07091 72.722351 11.795941
109.11182 73.242592 11.910981
109.12913 73.570984 11.983209
46.355583 82.509132 11.78435
108.06866 56.877808 12.129824
108.10806 57.219501 12.215759
108.26061 57.760651 12.36591
108.2534 58.084621 12.441504
108.43405 64.442619 12.008649
109.14667 73.918709 12.059781
109.17056 74.260208 12.135554
109.21918 74.818405 12.260328
109.26096 75.375183 12.38465
44.71188 85.084778 12.431273
45.230438 85.282249 12.411152
46.866413 85.30954 12.242168
45.596352 85.561356 12.422767
108.28136 58.999992 12.664131
108.54054 58.762596 12.645208
108.41345 59.792099 12.874362
110.58971 66.782181 12.772741
110.62502 67.210861 12.875132
110.66583 67.648766 12.980515
109.11835 68.241417 12.962029
40.768394 85.352257 12.920588
41.312973 85.831947 12.944422
41.557564 85.822151 12.914904
45.595924 86.169037 12.533841
45.892838 86.644951 12.589408
46.092144 86.722878 12.582657
46.943531 87.018021 12.54787
47.112053 87.214233 12.566523
108.64529 60.215271 13.010322
108.4371 60.745285 13.110167
108.58623 60.634972 13.104252
108.6526 61.16568 13.243804
108.48534 61.731392 13.360208
108.59371 61.583473 13.338634
110.70498 67.955078 13.055533
110.33396 68.160522 13.065304
110.58776 68.124901 13.082937
108.99954 68.550179 13.023195
109.00313 68.828308 13.08943
109.03279 69.282181 13.200165
109.07307 69.76667 13.319533
109.10519 70.263939 13.441599
48.4123 80.885628 13.376897
108.54106 62.514236 13.562965
108.67735 63.134293 13.737206
109.81447 63.390541 13.95671
110.01604 63.314362 13.965521
108.41406 63.907768 13.897493
108.5443 63.645206 13.848246
109.13967 70.738884 13.558871
109.16205 71.22998 13.679302
109.19904 71.742462 13.80661
109.22209 72.238808 13.929159
44.155479 80.388565 13.796931
44.704308 80.72879 13.799292
45.972763 80.924629 13.681628
46.343689 80.577065 13.560785
112.89435 80.826416 13.808091
44.981087 81.119263 13.847713
45.324516 81.089729 13.798127
45.638565 81.151848 13.77213
46.820324 81.0401 13.602063
47.047256 81.029106 13.572011
47.810921 81.338089 13.546836
112.8827 81.194687 13.888551
47.669979 82.251289 13.762012
48.309296 82.331917 13.703918
48.779343 82.259911 13.633224
46.986221 82.878517 13.979972
48.786125 82.85495 13.762383
49.302544 82.966278 13.727219
48.259029 83.073082 13.871387
108.56248 64.302887 14.017875
109.25443 72.750893 14.056718
109.30267 73.280212 14.190347
109.32395 73.784584 14.315796
109.36375 74.309135 14.448257
41.502487 82.005005 14.487416
42.085976 82.296097 14.471853
42.725883 82.240524 14.37636
43.29248 82.767082 14.415227
46.658146 82.842346 14.011685
110.74669 66.771263 14.937263
109.41891 74.874504 14.59246
109.44527 75.243568 14.685985
109.41951 75.553879 14.760647
40.815041 82.399628 14.662427
41.815613 82.378952 14.525014
41.17635 82.672676 14.671864
42.008732 82.958664 14.622499
110.79301 67.342598 15.090086
110.85537 67.80262 15.216844
109.27952 68.247322 15.132817
109.85802 68.115387 15.170734
110.24385 68.070976 15.208034
110.72661 68.110054 15.279913
109.15504 68.818405 15.268149
109.18968 69.284012 15.395902
109.21288 69.617409 15.487453
42.27174 86.14518 15.267407
109.22581 69.927849 15.571847
109.25024 70.252914 15.661727
109.28588 70.744644 15.79792
109.29169 71.209373 15.923707
34.529327 73.735901 15.968263
46.514275 81.437195 15.91607
46.775558 81.625443 15.927525
109.33344 71.719589 16.066486
109.37357 72.249557 16.21484
109.39641 72.743698 16.351963
109.43088 73.256378 16.495865
113.09344 81.057816 16.441753
48.528107 83.823944 16.249653
48.537544 84.438324 16.404282
109.4837 73.789017 16.647789
109.51242 74.29982 16.791389
109.55269 74.679878 16.900623
109.56075 75.025597 16.997021
47.908173 84.907898 16.604424
49.567993 85.414444 16.522591
34.422543 69.973679 17.239422
34.471565 70.863914 17.454014
109.5967 75.407181 17.106609
34.518604 71.142738 17.514977
46.757462 83.939789 18.830494
47.229118 83.921722 18.755825
46.92514 84.108986 18.854317
113.24563 80.843849 19.013603
44.745995 84.236694 19.219402
33.27562 69.702942 19.579035
33.840313 70.111938 19.559998
34.120743 70.230972 19.527739
34.245247 70.704338 19.632429
34.308537 71.12381 19.736675
34.600235 71.254677 19.706606
34.738899 71.732666 19.811279
34.772049 72.171944 19.929569
34.771027 72.663383 20.07106
34.827713 73.273254 20.23415
34.828598 73.794609 20.3848
34.87051 74.071968 20.455894
34.891628 74.398392 20.546062
34.918995 74.719177 20.6334
34.935104 75.077171 20.734295
108.43158 25.342735 -4.2884007
108.50646 25.61824 -4.2720923
109.90586 25.791176 -4.3739471
109.95998 26.228445 -4.3428245
95.556953 26.580585 -4.0978642
109.99405 26.512852 -4.3225293
110.023 26.80513 -4.3012109
96.366638 27.348146 -4.1285915
110.04528 27.244843 -4.2674389
96.431541 27.538374 -4.120348
96.78373 27.773554 -4.1424255
109.97069 27.892893 -4.2089052
110.05916 27.607748 -4.2392526
97.208221 28.209805 -4.1566105
110.02612 28.118496 -4.1953187
96.439667 28.778336 -4.0192523
97.487389 28.505465 -4.1653967
85.44426 25.925486 -3.5952873
91.583054 25.91338 -3.6867919
92.833572 25.959055 -3.8301682
91.543785 26.002522 -3.6743588
93.352272 26.11323 -3.8779156
93.882652 26.278931 -3.9261363
87.385223 27.903051 -3.7114012
87.473679 28.03063 -3.7139812
87.658463 28.227392 -3.7255893
105.59978 28.421364 -3.8039002
88.230721 28.905024 -3.757026
105.61642 28.680065 -3.7844825
87.689102 29.290939 -3.6422887
94.253265 29.027273 -3.7404532
103.40244 29.387796 -3.5441523
103.64549 29.265429 -3.5740995
87.463211 29.528831 -3.5885239
87.598183 29.765556 -3.5906961
103.30247 29.510035 -3.5260873
87.868599 30.190857 -3.5994499
88.020294 30.443937 -3.6035669
104.18515 30.389738 -3.5291517
104.92006 30.093826 -3.6136384
88.140144 30.729099 -3.6007476
104.59173 30.750433 -3.5342197
87.940948 31.20612 -3.5353012
88.138504 31.082668 -3.5745552
105.82591 47.79961 -3.829751
93.903809 48.830921 -3.6045434
93.872688 49.230885 -3.5895538
93.84845 49.720764 -3.5734851
93.753548 50.232098 -3.547842
105.83578 50.3391 -3.6893711
93.751625 50.754726 -3.5348465
105.9859 50.829842 -3.6794169
93.683449 51.157257 -3.5162957
106.02193 51.202442 -3.6633244
106.03456 51.564156 -3.6453116
106.08859 52.125282 -3.6214147
108.53087 58.877407 -3.5444117
108.41227 59.217312 -3.5150127
109.34503 60.357456 -3.5599937
109.38341 60.71505 -3.5468335
109.41077 61.193432 -3.5267625
110.69256 64.237923 -3.519382
115.16301 67.661003 -3.8340521
89.332253 -23.990114 -3.2604539
89.42411 -23.159361 -3.2387118
89.451363 -21.207785 -3.1786361
89.542999 -20.223866 -3.1515703
89.559174 -19.562128 -3.1312513
89.557808 -19.125437 -3.117269
94.675613 -16.786177 -3.2512498
71.732483 -5.231029 -3.0156574
72.421677 -5.215353 -3.0582516
72.699287 -5.1776652 -3.0733697
73.020546 -5.1319256 -3.0906947
73.653801 -5.3352962 -3.1430657
74.134644 -5.2521172 -3.167819
74.8731 -5.2129498 -3.2111669
76.603264 -5.098177 -3.310225
77.081894 -5.0025616 -3.3333478
76.687576 -4.9285488 -3.3046875
77.320175 -4.9379597 -3.3437438
77.703873 -4.9338932 -3.3667269
72.607712 7.9655466 -3.0066128
72.780533 8.0532236 -3.0100439
88.397133 8.0391579 -3.1344304
88.488785 8.5295315 -3.1062365
88.761932 8.6854105 -3.1101334
88.863396 9.2878094 -3.074693
86.252869 18.722528 -3.0251732
90.676476 20.26145 -3.249568
90.697784 20.572512 -3.2244058
88.054138 25.388777 -3.3183155
89.415573 25.327644 -3.4837172
81.937378 25.811998 -3.0731876
82.226715 25.92556 -3.1056066
86.310822 25.618752 -3.0929163
97.559875 25.83938 -3.3471711
98.0439 25.573195 -3.4091144
118.86714 25.576382 -3.3426998
75.783981 26.327131 -3.0008538
79.346291 26.29315 -3.0528336
79.71003 26.353533 -3.1139479
80.384865 26.352007 -3.2401965
80.610451 26.439524 -3.2729232
82.309387 26.036736 -3.1070189
82.675835 26.066971 -3.1597283
83.420639 26.021095 -3.2775881
83.70224 26.047184 -3.3179026
84.17334 26.071972 -3.38726
97.602104 26.04357 -3.3339205
98.216408 26.091225 -3.3809009
77.42067 26.521374 -3.0258355
77.807594 26.7435 -3.0843468
80.806114 26.723705 -3.2795029
81.047653 26.979671 -3.2983694
82.30381 26.73538 -3.0379651
83.777107 26.853798 -3.2519493
118.9391 26.807434 -3.2489767
77.999573 27.02545 -3.0934603
78.145927 27.272217 -3.0982397
81.244026 27.257954 -3.3074875
78.388542 27.711458 -3.1051588
78.508324 27.954079 -3.1071229
80.638435 27.819559 -3.1384461
81.46756 27.638468 -3.3126209
78.625809 28.242039 -3.1054628
80.575836 28.061743 -3.1038723
81.853737 28.270437 -3.3273876
82.979195 28.076876 -3.0187361
78.81395 28.755743 -3.1006241
81.260521 28.784895 -3.1698031
81.998398 28.576412 -3.3277938
82.111649 28.769756 -3.3327091
90.542191 28.966572 -3.3063369
78.954407 29.1129 -3.1016719
79.044998 29.364725 -3.1017773
82.281395 29.213722 -3.3281517
82.501869 29.469913 -3.3494723
89.937119 29.278418 -3.2096629
79.165833 29.756182 -3.099227
82.64225 29.752203 -3.3542874
88.499969 29.692205 -3.0067086
89.92878 29.510017 -3.1901684
90.861542 29.997013 -3.2620111
101.35387 29.663187 -3.3522687
79.286972 30.256033 -3.0914941
82.869019 30.228996 -3.3617291
83.007057 30.471191 -3.370481
99.320526 30.443335 -3.121558
79.397919 30.750282 -3.0850832
83.106812 30.748634 -3.3701277
85.246628 30.981754 -3.1378841
79.477936 31.190939 -3.07781
79.512627 31.444647 -3.0721066
83.3414 31.261797 -3.3803058
84.483086 31.132008 -3.0100989
84.74791 31.075493 -3.0546994
85.107002 31.027002 -3.1132274
87.362671 31.005728 -3.4609895
89.802666 31.054848 -3.0552282
104.5065 31.235424 -3.4887271
79.560936 31.748154 -3.068095
81.80761 31.809036 -3.0577593
82.194458 31.655905 -3.1394672
83.456505 31.549788 -3.3836231
83.516808 31.698179 -3.385797
104.77142 31.880703 -3.459738
79.640007 32.25724 -3.0631652
83.785339 32.42371 -3.3935008
104.68587 32.124916 -3.4334178
79.693138 32.754025 -3.0559692
83.872665 32.729721 -3.3929768
79.705025 33.253326 -3.0425036
82.202652 33.373234 -3.0500751
82.585739 33.239025 -3.1272714
83.967491 33.07074 -3.3925095
84.032005 33.353073 -3.3901443
104.43536 33.4492 -3.3088918
79.687958 33.752934 -3.0256362
82.12574 33.509003 -3.0296803
104.67827 33.607552 -3.3166511
79.664238 34.263474 -3.0100036
84.210114 34.344475 -3.3766601
79.654526 34.625965 -3.0020406
82.746384 34.644703 -3.0964005
83.063454 34.525394 -3.1588387
84.239685 34.681282 -3.367768
104.89875 34.871071 -3.2367339
84.383408 35.486347 -3.3624873
84.430161 35.765545 -3.3609855
105.64369 35.794743 -3.2270021
82.911453 36.320503 -3.0712028
83.205231 36.175289 -3.1276164
84.475662 36.218895 -3.3538463
84.502274 36.465248 -3.3507402
105.78038 36.022285 -3.2207787
84.517166 36.575314 -3.3500133
92.721596 36.613953 -3.0074224
105.55315 36.922771 -3.1329076
84.602776 37.426487 -3.3411682
105.9561 37.144348 -3.1492205
106.03253 37.364529 -3.1387019
84.614822 37.757626 -3.3349819
105.82478 37.515762 -3.1100144
106.02974 37.700127 -3.1128626
84.61628 38.235756 -3.324209
105.94464 38.237076 -3.0649757
106.08025 38.269798 -3.0736711
84.59568 38.75375 -3.3099835
105.88567 38.5019 -3.0400062
84.597351 39.258472 -3.3011572
88.130875 39.31628 -3.1133695
84.614342 39.751453 -3.2963133
88.10952 39.750031 -3.0928526
84.549545 40.238186 -3.2787971
88.201599 40.246563 -3.0867114
84.458008 40.905636 -3.2562425
84.518005 40.69664 -3.2683067
88.280807 40.705971 -3.0807319
84.358894 41.251038 -3.2369182
88.438576 41.291626 -3.0818391
88.512283 41.218727 -3.094852
84.27774 41.718548 -3.2205131
88.606079 41.805931 -3.0874248
84.206413 42.209805 -3.2066889
88.597115 42.249352 -3.0711372
84.156715 42.730621 -3.1973851
88.598129 42.749184 -3.0549417
84.107643 43.270599 -3.1892846
88.682861 43.221272 -3.0517952
83.899994 43.785191 -3.1573379
84.019241 43.540916 -3.1755233
88.819534 43.737343 -3.0549359
83.774727 44.284901 -3.1396418
88.948326 44.153221 -3.0602865
89.051025 44.393837 -3.0673704
83.59597 44.743652 -3.1146212
89.222923 44.744957 -3.0808229
83.389565 45.237415 -3.0868723
89.404121 45.051037 -3.0969088
89.731384 45.412842 -3.1313958
83.182396 45.752636 -3.0605431
82.93885 46.35783 -3.0313375
83.05497 46.133648 -3.0457497
98.4189 46.080055 -3.0945799
82.804977 46.685467 -3.0160468
102.02992 46.88446 -3.4542413
101.45721 47.255737 -3.3694484
101.98131 47.160446 -3.433404
102.02323 47.183086 -3.4368563
90.902252 51.452232 -3.1467421
91.234268 51.240528 -3.1937263
91.618332 51.143536 -3.2454638
92.160156 51.186646 -3.315223
92.771072 51.120842 -3.3967025
93.054695 51.065208 -3.4352753
93.502419 51.302559 -3.4889898
90.665474 51.762524 -3.1106033
93.355736 51.642395 -3.462033
90.427277 52.38055 -3.0693078
90.505478 52.144295 -3.083329
90.362762 52.719913 -3.0554371
90.332924 53.101131 -3.0454476
103.88363 54.42028 -3.2616756
104.07547 54.266281 -3.2902102
90.64624 54.735397 -3.0595493
103.83139 54.748253 -3.2397046
90.726929 55.188633 -3.0630217
103.8959 55.077885 -3.2303836
90.92379 55.96479 -3.0765171
90.880081 56.102425 -3.0693102
105.09331 56.141945 -3.3074369
105.76501 58.892395 -3.2465866
105.61741 59.30909 -3.2110775
90.742996 60.486904 -3.0039654
91.095184 60.405312 -3.0461152
90.945091 60.536568 -3.0272117
91.717545 60.789127 -3.1158156
109.53273 63.768448 -3.418258
109.55415 64.155045 -3.4026167
110.52507 64.348076 -3.4964721
108.21756 64.720345 -3.2359884
109.58907 64.681259 -3.3820534
109.61273 65.198158 -3.360868
108.79533 65.894348 -3.2435675
108.81274 66.284309 -3.2279215
108.82278 66.801788 -3.2059052
108.75716 67.135712 -3.1842678
92.733063 68.409355 -3.17325
93.260185 68.352348 -3.2330363
108.8476 68.430603 -3.1367686
109.13683 68.163437 -3.1784046
92.497467 68.639908 -3.1454897
94.969795 70.383728 -3.4134984
95.321556 70.296669 -3.4541881
91.977341 71.968811 -3.0729895
93.617996 71.763397 -3.2537184
91.848465 72.087051 -3.0586152
92.223206 72.059105 -3.0993485
93.256699 72.1521 -3.2119865
93.743301 72.294327 -3.2649868
93.742157 72.634949 -3.2632444
92.380791 73.961441 -3.1098981
92.174339 74.137688 -3.0872188
92.368958 74.881554 -3.1059556
92.835426 76.954102 -3.1504009
86.182938 -19.767595 -2.9841895
86.231056 -19.094519 -2.9657869
86.378799 -18.267639 -2.9471633
86.762657 -18.286741 -2.9654517
82.272743 -11.115779 -2.5351765
82.532272 -10.957842 -2.5427196
66.788185 -5.0922947 -2.6873767
67.145584 -5.0524139 -2.7084086
67.920883 -5.0956345 -2.7619123
68.099968 -5.0114651 -2.7683494
69.285568 -5.0848522 -2.8499093
69.705894 -5.11343 -2.8788092
93.862152 -5.4123058 -2.8125803
94.695282 -5.0252247 -2.8256118
95.505402 -4.5841808 -2.8348246
71.4925 7.9847889 -2.9281573
71.768143 7.9347954 -2.95187
72.269173 7.9275732 -2.9869657
69.372841 8.451355 -2.7398107
69.749123 8.3013935 -2.7795453
70.268707 8.2155437 -2.8227596
70.758797 8.1482506 -2.8623819
71.219856 8.0546961 -2.9027779
67.224403 8.7918262 -2.5655987
67.719139 8.8161869 -2.5953336
68.21669 8.7763367 -2.6317341
68.716919 8.6679163 -2.6752183
69.115494 8.5499001 -2.713099
85.019714 8.8877087 -2.8968098
84.965942 9.2437649 -2.870214
72.837547 9.5787277 -2.8657615
73.250916 9.7953272 -2.8735759
73.691139 9.9160194 -2.8927534
83.74678 9.8730106 -2.7624824
73.950768 10.157229 -2.887677
74.007133 10.418375 -2.8663704
83.198837 10.080639 -2.7189741
86.007889 10.122633 -2.8672559
74.130814 10.751254 -2.8429184
86.552177 10.998604 -2.8370404
89.028206 10.606026 -2.9935827
74.212074 11.23586 -2.8018138
88.774635 11.156902 -2.9427004
89.138939 11.339444 -2.94912
89.542625 11.190592 -2.9802749
74.273079 11.819193 -2.7497787
81.692825 11.784611 -2.5242577
89.824486 11.596828 -2.9668972
85.61058 12.036503 -2.717129
74.082298 12.889528 -2.6327767
83.479897 12.915653 -2.544987
83.555908 12.949514 -2.5467513
74.129929 13.268539 -2.5996077
89.661438 13.107603 -2.8539603
74.14463 13.792432 -2.5501347
89.696312 13.660919 -2.8172235
69.819679 14.478927 -2.705128
70.298584 14.445134 -2.7445159
70.760048 14.36329 -2.7896955
71.249489 14.336761 -2.830405
71.735611 14.357132 -2.8654623
72.252007 14.199899 -2.9270105
72.7332 14.206199 -2.9650331
74.205765 14.251788 -2.5102732
84.916573 14.350117 -2.52336
85.854919 14.37693 -2.5702608
89.731895 14.312913 -2.7734716
67.418716 14.767017 -2.5041857
67.76947 14.767507 -2.5266054
68.271812 14.76993 -2.5592248
68.751701 14.721355 -2.5980136
69.240768 14.626363 -2.6444619
69.579742 14.539264 -2.6799281
70.104279 14.508296 -2.7218597
72.933228 14.7274 -2.9133883
89.755989 14.81534 -2.7394438
72.967171 15.268585 -2.8457355
89.784996 15.254158 -2.7100286
72.986816 15.58601 -2.806102
73.230049 15.802948 -2.7984908
73.748199 15.867364 -2.8345177
74.138893 15.926673 -2.860904
89.805122 15.560669 -2.6894164
74.379135 16.192982 -2.8480186
74.516251 16.47736 -2.8239558
74.450745 16.501583 -2.8150029
74.63839 16.787016 -2.7956295
79.935364 16.865482 -2.6926916
80.009483 16.956903 -2.6899731
89.887955 16.945915 -2.5952086
74.497566 17.045607 -2.7500172
74.595482 17.060375 -2.75702
79.403572 17.122627 -2.6276088
79.783722 17.211876 -2.6488264
80.230896 17.246738 -2.6803963
89.885612 17.096958 -2.5843043
67.892868 17.99415 -2.503453
68.148155 17.99822 -2.5195975
69.346764 17.985117 -2.6076176
69.747253 17.954422 -2.6439683
70.240211 17.914766 -2.690614
70.738365 17.902311 -2.7349274
71.2407 17.91684 -2.7769163
71.738289 17.975794 -2.8129375
72.338661 17.963966 -2.8722897
72.7603 17.882034 -2.9273031
73.080215 17.901728 -2.9564023
74.527283 17.623592 -2.6795127
80.177956 17.54281 -2.6489334
80.812866 17.721092 -2.6822271
81.036919 17.883835 -2.6848884
67.992844 18.002853 -2.5084982
68.299118 18.016916 -2.5266776
68.751205 18.018845 -2.5579226
69.125351 18.011126 -2.5865426
72.12825 18.002199 -2.845614
73.143967 18.277021 -2.9025602
74.418022 18.230022 -2.5929801
74.531128 18.429546 -2.5783463
80.98465 18.008423 -2.6693659
81.216049 18.16077 -2.6736689
81.59082 18.362778 -2.6848412
73.180107 18.779161 -2.8258722
74.479965 18.919531 -2.5121784
74.524704 18.728615 -2.540267
81.700417 18.584574 -2.6733449
82.243309 18.846056 -2.6927755
82.569183 18.966764 -2.7078249
83.904373 18.994011 -2.8121412
84.159279 18.949764 -2.8365421
84.632988 18.892927 -2.8796465
85.229279 18.813927 -2.9346189
85.947388 18.925274 -2.9825301
86.028305 18.962467 -2.9857523
73.311493 19.220306 -2.7695966
73.748383 19.375317 -2.7927294
74.13102 19.474329 -2.8199251
82.805206 19.144758 -2.7106326
83.26371 19.166199 -2.7453814
84.190079 19.009342 -2.8336821
74.381668 19.566656 -2.8341422
74.600006 19.817036 -2.8209202
81.756981 19.76799 -2.5708065
82.072296 19.888287 -2.5851994
68.353592 20.085072 -2.5088916
68.751511 20.096895 -2.5357826
69.250473 20.089188 -2.5770726
69.759071 20.075285 -2.6237452
70.259727 20.076988 -2.6698372
70.761772 20.120398 -2.71087
71.247398 20.189072 -2.7482924
71.742722 20.259609 -2.7894869
72.25106 20.338732 -2.8335571
72.776939 20.299139 -2.9054871
73.165726 20.370886 -2.9411855
74.742958 20.163904 -2.784898
73.293114 20.770618 -2.8828936
74.7006 20.779593 -2.6870713
78.818077 20.954773 -2.7095764
73.3694 21.280046 -2.7987695
73.528694 21.459641 -2.7876399
74.680016 21.173306 -2.6257508
77.940109 21.454624 -2.5589905
78.849472 21.048191 -2.7024698
79.389778 21.247301 -2.738879
73.772667 21.637173 -2.7897482
74.223152 21.878325 -2.8117387
74.616402 21.679989 -2.5429914
79.306107 21.87678 -2.6605313
79.533478 21.586756 -2.7171867
74.470726 22.006302 -2.8258557
74.735474 22.318892 -2.7886539
79.210228 22.131384 -2.622288
85.419914 22.428654 -2.6324782
73.448967 22.793352 -2.844959
73.972046 22.651398 -2.6394899
74.019913 22.689861 -2.6400294
74.943138 22.62569 -2.7927005
75.06636 22.649471 -2.8080106
73.490021 23.039261 -2.8020315
73.698792 23.320833 -2.7829044
74.721771 23.330673 -2.6414902
75.11937 23.471832 -2.6828516
73.196632 23.902515 -2.8546269
73.983871 23.524988 -2.794327
74.259689 23.705978 -2.8112628
74.740379 23.77626 -2.7078521
75.106155 23.734524 -2.6392334
76.445099 23.740932 -2.5003932
73.441391 24.029232 -2.8773065
73.761856 24.205357 -2.9080317
74.074074 24.436543 -2.9280705
74.876129 24.199278 -2.7237005
75.117638 24.411802 -2.8190465
72.765152 24.895796 -2.7896986
74.320732 24.710976 -2.928807
74.671112 24.936609 -2.8645456
75.137772 24.806458 -2.788003
75.677238 24.99402 -2.8680813
72.946693 25.036865 -2.8004019
73.246826 25.2831 -2.8200412
74.783264 25.213047 -2.9411509
75.151886 25.206144 -2.8243549
75.648712 25.298622 -2.7589304
82.344681 25.254148 -2.6626654
82.587128 25.184769 -2.6974869
72.416031 25.646513 -2.7458291
72.648453 25.862011 -2.7586143
73.49221 25.520119 -2.8311121
73.721771 25.762964 -2.8418875
75.29641 25.732639 -2.9740574
75.762421 25.703545 -2.797523
76.215828 25.852455 -2.7933922
79.947029 25.665558 -2.7877173
80.237007 25.695614 -2.828218
80.730713 25.723663 -2.8997395
81.165977 25.825689 -2.9549968
82.447502 25.86298 -2.6178925
82.691444 25.685837 -2.6628261
85.331169 25.617706 -2.9781051
72.898903 26.108824 -2.7737679
73.125839 26.356575 -2.7872803
73.9757 26.039545 -2.855397
74.165009 26.291082 -2.8609083
75.715904 26.212538 -2.9843655
76.392853 26.173849 -2.7248356
76.715973 26.407017 -2.7370048
77.268639 26.408926 -2.6538596
78.863441 26.212664 -2.9721329
81.231758 26.029613 -2.9441469
82.481232 26.068493 -2.6029584
110.11279 26.397877 -2.8595943
73.379402 26.692633 -2.7963526
73.52964 26.945696 -2.7947969
74.415176 26.641531 -2.8693492
74.56662 26.883984 -2.8725457
75.930336 26.716717 -2.9807014
76.029152 26.959776 -2.9721346
76.962303 26.514477 -2.9256768
77.141907 26.531061 -2.9631317
81.205444 26.883938 -2.8558941
81.530594 26.888109 -2.905144
82.452499 26.694168 -2.5430255
110.12664 26.621361 -2.8426366
73.709358 27.251734 -2.7984715
74.763878 27.246899 -2.8740318
76.172394 27.241352 -2.9721346
80.780182 27.355427 -2.7462778
81.398972 27.006197 -2.8737807
81.562859 27.352079 -2.8664505
82.593765 27.06398 -2.5268741
110.18327 27.202866 -2.7993901
73.925339 27.664755 -2.8020344
74.03817 27.915142 -2.802721
74.948097 27.608402 -2.8765275
75.070518 27.852257 -2.8808563
76.39624 27.708437 -2.9728925
76.507126 27.963181 -2.97263
80.702789 27.747036 -2.6984129
82.408249 27.76479 -2.9585714
83.135742 27.571209 -2.5466857
83.87059 27.856388 -2.6091297
110.11216 27.781776 -2.7501118
74.174103 28.255676 -2.8034651
75.241173 28.249338 -2.884244
76.623413 28.238815 -2.973711
80.605141 28.066946 -2.6546981
81.534836 28.083496 -2.7961128
82.314987 28.073364 -2.9169269
83.988441 28.014008 -2.6097322
105.98798 28.316902 -2.5106161
110.12602 28.082026 -2.7269251
74.342682 28.747932 -2.8041155
75.411926 28.751207 -2.882484
76.814079 28.744919 -2.9740398
81.432755 28.769266 -2.721669
74.456535 29.169891 -2.8027601
74.520729 29.420618 -2.8042824
75.485947 29.019802 -2.879447
75.559105 29.271339 -2.8803833
76.943962 29.143694 -2.9729357
77.024391 29.397419 -2.9735763
81.928856 29.068876 -2.7733285
82.221802 29.245125 -2.8042102
74.573387 29.745953 -2.8003638
75.660019 29.741947 -2.8760576
77.115799 29.749769 -2.9716122
87.442574 29.934156 -2.8626161
87.603333 29.804081 -2.8918366
74.624489 30.255421 -2.7914274
75.724823 30.237095 -2.8661299
77.209007 30.240997 -2.9639769
88.314796 30.290329 -2.9380243
92.427948 30.408215 -2.5529103
74.628281 30.759644 -2.7768571
75.762566 30.743065 -2.8547494
77.271645 30.742903 -2.9526699
87.405731 30.740055 -2.7960467
74.600563 31.259094 -2.7615571
75.766762 31.241117 -2.8407497
77.304642 31.25219 -2.9383247
82.980324 31.477381 -2.7562068
83.246933 31.411367 -2.8014507
83.679672 31.311178 -2.8745334
84.182732 31.209421 -2.9586427
88.408424 31.291311 -2.8728409
88.606926 31.278267 -2.8972154
89.1642 31.259981 -2.9643853
74.486595 31.951456 -2.7312262
74.540115 31.711365 -2.7442789
75.76371 31.73999 -2.8314195
77.336143 31.757818 -2.9286523
81.476852 31.866995 -2.5013578
81.642685 31.777359 -2.5323291
82.278572 31.646856 -2.6377542
82.702271 31.538141 -2.7096431
88.291626 31.527678 -2.8414078
74.419838 32.245247 -2.7186747
75.695831 32.246048 -2.8101707
77.356949 32.260971 -2.9210229
74.257187 32.746872 -2.6893768
75.587349 32.749306 -2.7844572
77.344589 32.767658 -2.9094908
97.134598 32.786793 -2.756084
73.980965 33.433395 -2.649642
74.087242 33.18586 -2.6637304
75.431442 33.292286 -2.7540221
75.512939 33.035 -2.7692254
77.275032 33.247532 -2.8884311
73.814552 33.737858 -2.6265619
75.274673 33.748405 -2.728236
77.179344 33.748367 -2.8654706
73.411087 34.373173 -2.5761108
73.585884 34.112507 -2.5967188
74.981621 34.455723 -2.6870368
75.086327 34.196091 -2.699784
76.997398 34.463337 -2.8296845
77.063286 34.231377 -2.8419325
83.441483 34.48156 -2.6475234
83.816078 34.459961 -2.7045329
84.221397 34.408558 -2.7678325
72.968117 34.963108 -2.5304637
73.166962 34.715435 -2.5508828
74.827209 34.738075 -2.6659198
76.925171 34.737911 -2.8182342
79.623962 34.794456 -2.9934843
82.61602 34.592308 -2.5191615
83.244324 34.556767 -2.6142879
72.803665 35.155903 -2.5152066
74.447594 35.42725 -2.6237257
74.603592 35.171299 -2.6412082
76.764694 35.243984 -2.7941184
79.584846 35.266312 -2.9807413
74.205055 35.754604 -2.5954199
76.469193 35.949482 -2.7524333
76.582413 35.683304 -2.7674015
79.478699 35.939346 -2.9561405
79.529358 35.702423 -2.9669626
73.796082 36.260696 -2.5519085
74.00383 36.018559 -2.5736637
76.30806 36.255001 -2.730592
79.413109 36.251194 -2.9432416
98.901237 36.259243 -2.6346788
73.396011 36.701107 -2.5133185
73.55423 36.540672 -2.5287559
75.945625 36.901012 -2.6860325
76.092148 36.645695 -2.7032001
79.306374 36.738285 -2.9242225
75.741669 37.266331 -2.6654012
79.160736 37.241451 -2.9003534
75.313896 37.803917 -2.615114
75.532333 37.550892 -2.6409299
78.920219 37.869335 -2.8631728
79.034157 37.622784 -2.8809047
74.821556 38.313717 -2.5587919
75.054237 38.068615 -2.5838809
78.736748 38.251526 -2.8360507
100.69615 38.112934 -2.642072
74.355675 38.781563 -2.5120728
74.571404 38.571331 -2.533222
78.473602 38.969246 -2.8048162
78.558907 38.713047 -2.8137448
78.351601 39.266762 -2.7913492
78.142159 39.766521 -2.7699552
90.369362 39.772873 -2.5437942
77.897324 40.289436 -2.7460184
78.012146 40.034801 -2.7564173
90.517647 40.089157 -2.5423803
77.681038 40.752079 -2.7274477
77.367661 41.279072 -2.6980853
77.527786 41.019627 -2.7129812
106.31126 41.106133 -2.878782
76.916344 41.921669 -2.6559157
77.112663 41.648712 -2.6738622
76.497383 42.460598 -2.6187718
76.671837 42.232388 -2.6336069
94.101418 42.336891 -2.818615
75.995186 42.99918 -2.5737016
76.254509 42.741405 -2.5976346
94.085022 42.620018 -2.8008368
75.790329 43.254982 -2.5589783
75.365578 43.832836 -2.5339065
75.548218 43.574795 -2.543535
75.137535 44.075737 -2.5178866
92.839203 44.226856 -2.574486
93.092941 44.14402 -2.6069479
93.56955 44.30983 -2.6509101
95.800278 44.36496 -2.8961759
92.974655 44.848877 -2.5567701
92.933441 45.010727 -2.5438125
82.637085 46.922737 -2.9950166
95.343445 46.933475 -2.7090299
95.52877 46.925507 -2.7297702
82.403648 47.383568 -2.968627
82.542793 47.121342 -2.9844024
95.165489 47.366112 -2.6674213
95.620911 47.323769 -2.719393
96.019775 47.113106 -2.7739818
96.867165 47.097504 -2.8680425
82.188911 47.771698 -2.9447834
95.869064 47.980499 -2.7130492
96.034676 47.810486 -2.739784
97.868683 47.579063 -2.9532294
81.864082 48.283901 -2.9088862
82.041122 48.046028 -2.9289455
95.981346 48.470039 -2.7005789
96.044456 48.377434 -2.71211
81.641983 48.743702 -2.8875346
81.359634 49.28566 -2.8609669
81.52494 49.012177 -2.8772285
81.163048 49.753166 -2.8453948
80.966949 50.404045 -2.8352761
81.057434 50.142475 -2.8407145
80.828918 50.756622 -2.8262792
80.65937 51.243965 -2.8172073
78.172241 51.784252 -2.5303752
80.442978 51.84985 -2.8062594
80.561546 51.60223 -2.8143761
78.483467 52.055557 -2.5752277
78.80117 52.336987 -2.6213276
80.227432 52.215706 -2.789732
88.878632 52.320747 -2.8757658
89.129288 52.274979 -2.9077168
79.245766 52.760605 -2.6869638
79.856827 52.878002 -2.7636986
80.05088 52.557812 -2.7778313
89.84108 52.809109 -2.9884064
79.610626 53.101997 -2.7408204
88.923508 54.682518 -2.8490298
89.165375 54.609802 -2.8793497
90.063408 54.603107 -2.9894216
89.195946 55.465515 -2.8725226
88.966759 55.614445 -2.8431835
89.049286 55.558502 -2.8537509
89.239662 56.366013 -2.8674686
89.189613 56.506752 -2.8599491
89.757202 57.642536 -2.9155018
98.833252 59.285736 -2.5003178
99.028885 59.267544 -2.521286
89.813744 60.662861 -2.8943167
90.213341 60.576862 -2.9413757
90.706787 60.666519 -2.9980946
107.97332 69.897659 -2.9836469
107.99803 70.192902 -2.9736357
106.64696 70.919327 -2.8057978
108.03098 70.657478 -2.9573488
108.04825 71.256821 -2.9338861
108.04915 71.713974 -2.9148374
108.06988 72.018562 -2.9042382
108.18363 73.961823 -2.8355362
108.2325 74.96801 -2.7994752
107.70927 75.162689 -2.739305
108.03958 75.068443 -2.7761025
107.71381 75.647209 -2.7203038
109.55881 78.502609 -2.7897797
111.84421 80.8573 -2.9230332
111.80903 81.567726 -2.8912549
108.39494 82.509857 -2.5194206
108.82846 82.677055 -2.555197
71.887001 -29.479158 -2.4819181
72.087982 -29.421274 -2.4927301
71.535362 -27.094175 -2.3946176
71.319031 -26.751017 -2.3717625
69.966713 -21.594309 -2.1455014
70.500969 -21.670645 -2.1812444
71.725525 -21.54693 -2.2538598
69.428566 -21.296518 -2.1031511
69.693588 -21.34215 -2.1212716
70.223312 -21.389429 -2.1560779
72.141525 -16.277655 -2.1340978
71.994637 -12.986879 -2.0344229
72.262581 -12.707904 -2.0428288
72.762428 -12.66213 -2.0713778
73.1549 -12.890692 -2.1009364
76.341911 -11.60026 -2.2458532
76.792946 -11.63199 -2.2713292
77.11013 -11.754728 -2.2919757
79.666817 -11.708918 -2.4244804
73.350296 -11.477472 -2.0731344
73.764839 -11.379004 -2.094491
74.187073 -11.311838 -2.11696
76.446503 -11.390882 -2.2456148
76.604866 -11.443346 -2.2557366
79.199043 -11.127831 -2.383563
77.834045 -10.724611 -2.300936
78.372116 -10.534262 -2.3235886
78.762451 -10.624811 -2.3464389
74.659813 -10.315229 -2.1159475
77.99234 -10.473032 -2.3019853
78.130234 -10.437979 -2.3081882
78.577301 -10.4863 -2.3328378
80.949554 -9.9293041 -2.4355471
79.297745 -9.1368151 -2.3300676
80.296219 -9.0748291 -2.3779635
79.793457 -8.83951 -2.3460791
67.716316 2.3671215 -2.2826421
68.64859 2.4464149 -2.3384564
68.45755 2.7736111 -2.3056247
68.550125 2.7415504 -2.3136401
68.225891 3.827323 -2.2247682
81.433784 3.9888515 -2.0198233
86.885414 6.4812851 -2.1251554
85.420128 7.0333328 -2.0564108
89.158165 7.0677013 -2.1700802
89.28344 7.9951057 -2.1343694
89.360756 8.2812347 -2.1242089
88.230438 8.7619343 -2.0720026
89.464172 8.5389576 -2.1159215
90.679054 8.9824219 -2.1287539
91.044937 9.0767746 -2.1339502
63.598339 9.984272 -2.2206786
73.644867 9.8111677 -2.1909876
90.807442 9.9588776 -2.0876386
63.528549 10.12714 -2.2025139
73.816254 10.215252 -2.1757956
74.203812 10.466083 -2.1831708
74.738617 10.356372 -2.2219863
75.239891 10.467927 -2.2445638
75.758644 10.365945 -2.2815554
76.147369 10.074301 -2.3229058
75.138351 10.509109 -2.2359643
75.942886 10.921658 -2.2568779
76.003914 10.602711 -2.2808027
76.698692 10.939705 -2.2995744
63.701984 11.245461 -2.104507
74.433189 11.4505 -2.1344464
75.957069 11.062731 -2.2486932
76.216629 11.233843 -2.2528255
76.660416 11.343083 -2.2714913
90.371796 11.245737 -2.017046
63.721794 11.721557 -2.0594811
76.73468 11.659447 -2.2554529
63.756279 12.247896 -2.0104814
76.749794 12.36633 -2.2108481
77.102577 12.447891 -2.2257235
67.16452 12.765331 -2.1738462
77.294785 12.715736 -2.2193289
77.508293 12.894907 -2.2198176
77.691917 13.099172 -2.2169082
78.256142 13.239286 -2.239377
78.623909 13.45979 -2.2454708
79.164825 13.432562 -2.2771711
78.737663 13.640292 -2.2399564
79.298553 13.759921 -2.2630219
79.654083 13.715843 -2.2854087
80.092148 13.717662 -2.3092222
82.822441 13.925154 -2.4421186
63.925671 14.354877 -2.3586817
64.241119 14.299543 -2.3823812
64.685028 14.451409 -2.3860028
77.494308 14.140065 -2.1381605
77.631859 14.27005 -2.1373699
78.890991 14.153477 -2.2147384
82.651428 14.206348 -2.4140997
63.887054 14.706987 -2.310555
64.944237 14.528027 -2.3899646
65.263954 14.541672 -2.4058516
65.740494 14.581539 -2.4275453
66.243111 14.661451 -2.4462492
66.758591 14.722086 -2.4691548
67.168266 14.753741 -2.4902046
74.222343 14.786514 -2.4599917
79.04557 14.802662 -2.1804399
82.670837 14.705774 -2.3814104
63.923813 15.180035 -2.2504854
74.241394 15.27695 -2.4142067
82.678261 15.384519 -2.3358014
63.848854 15.711656 -2.1772141
74.264572 15.79498 -2.3661253
74.313049 16.228344 -2.3280799
83.280106 16.109856 -2.3177483
74.41507 16.639406 -2.2961628
74.695656 16.750776 -2.3061416
82.263611 16.500713 -2.2380807
74.838463 17.217644 -2.27213
75.064896 17.443735 -2.2673967
84.14241 17.032118 -2.2986536
64.270355 17.848448 -2.3429365
64.737968 17.821253 -2.3659704
65.235878 17.865492 -2.3800602
65.751434 17.856707 -2.4055548
66.258789 17.858887 -2.4307277
66.74881 17.920109 -2.4469423
67.247658 17.965679 -2.4681346
67.652733 17.991924 -2.4884999
75.29409 17.619146 -2.2678261
75.732033 17.784906 -2.2849445
76.179985 17.561972 -2.3397689
82.333351 17.767815 -2.1547103
82.704483 17.997639 -2.1579213
84.19017 17.895332 -2.2409735
64.112579 18.26152 -2.2693348
67.678619 18.002789 -2.4883282
75.84771 18.327091 -2.242435
76.038147 18.178322 -2.270875
82.087677 18.269947 -2.107372
82.508705 18.066578 -2.1430912
83.863503 18.040674 -2.2141836
64.155273 18.769775 -2.18784
75.970634 18.698076 -2.2167985
76.129051 18.905441 -2.2093673
79.12986 18.907633 -2.4412477
64.190285 19.27927 -2.1060357
74.484352 19.311228 -2.4637105
74.534668 19.280214 -2.4723458
76.234581 19.266424 -2.1835954
90.693565 19.381296 -2.4593687
64.249252 19.763033 -2.029388
74.533264 19.737129 -2.4154675
75.917801 19.689037 -2.1197579
76.357155 19.514572 -2.1697836
76.618164 19.785851 -2.1646016
80.415924 19.784502 -2.4625242
82.107224 19.778492 -2.0032361
86.242455 19.913454 -2.2008955
90.702415 19.608765 -2.4431858
64.31501 20.221046 -2.3043225
64.568367 20.135134 -2.3262343
65.411644 20.131454 -2.3495724
65.754555 20.090925 -2.3694639
66.243851 20.047138 -2.3975446
66.753914 20.0653 -2.4172268
67.255302 20.078094 -2.4408953
67.749245 20.077873 -2.4701786
68.099251 20.074209 -2.4935224
74.544563 20.231218 -2.3555703
75.697655 20.433836 -2.0332496
76.979965 20.112745 -2.1622908
77.425858 20.392347 -2.1712399
64.258133 20.782688 -2.1939931
74.617889 20.734386 -2.3010626
75.795982 20.536798 -2.0312266
77.301285 20.867466 -2.1177902
64.15818 21.192202 -2.1136274
68.040634 21.493473 -2.4788549
74.836433 21.170841 -2.269767
75.190109 21.402521 -2.277535
80.444878 21.481047 -2.3120582
81.754532 21.093914 -2.4518952
64.42878 21.924444 -2.2687881
64.751465 21.853739 -2.2844181
65.086861 21.792532 -2.2997327
65.914848 21.619608 -2.3528156
66.243515 21.587908 -2.3693244
66.748741 21.560923 -2.3935423
67.249168 21.543539 -2.4204078
67.745659 21.534487 -2.4502807
68.01384 21.520439 -2.4705436
75.407104 21.555193 -2.2814817
75.717026 21.771219 -2.2880328
64.275276 22.30127 -2.1861238
74.668846 22.294807 -2.4599841
75.907028 22.150364 -2.2637188
76.116226 22.381836 -2.2592006
77.222404 22.064342 -2.4132392
63.99662 22.533878 -2.1383815
64.235825 22.559372 -2.1294458
64.824821 22.947418 -2.2942221
65.247597 22.845327 -2.3135273
65.55304 22.800949 -2.3225849
66.314835 22.654112 -2.3673182
66.750404 22.612259 -2.3891728
67.254097 22.591808 -2.4135447
67.520691 22.572174 -2.4315867
74.023094 22.663473 -2.2190053
74.6754 22.737959 -2.3973525
76.292099 22.596521 -2.2534709
76.966209 22.579247 -2.3278699
79.782043 22.633453 -2.1561203
83.279327 22.946802 -2.4127412
64.402679 23.229753 -2.2349277
64.580635 23.023712 -2.2809143
66.821831 23.454119 -2.3792248
67.098297 23.432972 -2.392705
74.688622 23.223936 -2.3305991
63.974537 23.934237 -2.0821545
64.245598 23.782843 -2.1053808
64.798195 23.927649 -2.2760439
65.25058 23.774368 -2.2988679
65.670837 23.654003 -2.3208811
74.784737 23.688745 -2.2792532
75.211655 23.845207 -2.3159964
75.796555 23.518372 -2.4395626
76.422852 23.829889 -2.4858642
81.417313 23.809536 -2.1859112
64.26313 24.226564 -2.1902578
64.541222 24.024906 -2.2637568
65.386726 24.452806 -2.3022621
65.749016 24.33663 -2.3203866
66.032013 24.264107 -2.3326089
74.923119 24.490646 -2.4921396
75.404442 24.037224 -2.3170624
75.717445 24.205929 -2.3388348
76.225105 24.279991 -2.0601666
63.911346 24.926142 -2.0764225
64.224495 24.796846 -2.1824534
64.75737 24.741169 -2.2622504
65.140961 24.557745 -2.2860901
74.950928 24.758469 -2.4568782
75.023933 24.816217 -2.4608326
75.732224 24.769621 -2.2694361
76.083176 24.554108 -2.0150347
63.270168 25.218967 -2.0723658
63.758194 25.250921 -2.1288416
64.128899 25.091248 -2.2264898
74.955032 25.094357 -2.4084153
75.170959 25.215324 -2.4287336
75.731972 25.269178 -2.3149171
76.032623 25.398077 -2.2363069
79.179832 25.474836 -2.2741256
63.426182 25.87636 -2.1174109
63.570568 25.630024 -2.1567008
75.851448 25.685162 -2.4139841
76.158974 25.83602 -2.2247787
79.205963 25.758598 -2.2498322
79.552551 25.727066 -2.2931285
80.719193 25.853718 -2.4168649
63.210854 26.248293 -2.0655937
76.240463 26.128922 -2.378243
76.665649 26.197905 -2.2385895
77.240952 26.271488 -2.2726078
62.879475 26.757227 -2.0144355
63.021515 26.542763 -2.0330143
81.005722 26.985497 -2.3469238
85.738525 26.847515 -2.2854724
80.957901 27.147921 -2.3268766
81.020889 27.099375 -2.338593
61.874413 27.892265 -2.0129278
62.016273 27.77919 -2.0011292
61.721622 28.157125 -2.0082464
105.94914 28.449718 -2.4981892
81.492622 28.701902 -2.2573977
99.341438 28.88361 -2.1480477
103.59575 28.671314 -2.3681445
88.529312 30.948772 -2.18714
89.025513 30.555525 -2.2592249
83.360725 31.455563 -2.2657044
83.712868 31.372259 -2.313225
84.212372 31.271711 -2.3794324
84.702133 31.189426 -2.4432263
88.498383 31.05374 -2.1763349
89.076492 31.400543 -2.1970527
81.393204 31.946983 -2.4835947
81.761124 31.949049 -2.0426574
82.241409 31.766209 -2.1118608
82.723526 31.620436 -2.1788757
83.09758 31.522915 -2.2298684
88.470963 31.91235 -2.107007
89.317665 31.539131 -2.2061918
81.385864 32.259243 -2.4632432
81.618057 32.089943 -2.0161157
89.133293 32.077637 -2.1489766
81.450874 32.692848 -2.4472296
81.502838 32.931156 -2.441309
81.612167 33.24472 -2.4401951
91.690582 33.148342 -2.2776198
92.103989 33.046555 -2.3196619
90.912079 33.587135 -2.1795201
91.478943 33.867401 -2.2048438
91.723778 33.532272 -2.2507904
84.86731 34.323746 -2.2453384
82.341255 34.826279 -2.4670513
82.991112 34.756824 -2.0013225
83.281235 34.716064 -2.037214
84.228439 34.564034 -2.1559711
72.47271 35.486057 -2.4825437
72.578339 35.383369 -2.4925122
82.259262 35.255638 -2.4347692
71.914421 35.948448 -2.4304187
72.237701 35.708939 -2.4628913
82.309135 35.752243 -2.4198053
71.253471 36.373451 -2.3718715
71.657372 36.122677 -2.4065578
82.43821 36.14632 -2.4216058
82.532021 36.317101 -2.4280305
65.900925 36.925652 -2.0064011
66.062485 36.977528 -2.0152755
69.931915 36.972485 -2.2698157
70.25647 36.857063 -2.2941232
70.747231 36.641693 -2.3310812
71.000702 36.504181 -2.3491683
73.173622 36.911003 -2.4918549
92.730621 36.658344 -2.0964851
66.300339 37.045826 -2.0289159
66.745926 37.148895 -2.055217
67.252174 37.220943 -2.0849593
67.748947 37.254414 -2.1157129
68.247314 37.258141 -2.1492975
68.744858 37.225254 -2.1843131
69.250153 37.148262 -2.2204323
69.680786 37.048855 -2.2517986
72.483856 37.478951 -2.4294524
72.753265 37.268139 -2.4531562
73.031685 37.045055 -2.4792962
96.613525 37.315426 -2.366303
71.810867 37.887295 -2.3681681
72.233788 37.633743 -2.4054825
96.595085 37.630447 -2.341105
70.421295 38.469986 -2.2504137
70.762192 38.347828 -2.2773004
71.250793 38.153091 -2.3183789
71.563263 38.028183 -2.3478787
66.829742 38.80661 -2.0088804
67.259697 38.857735 -2.0350392
67.758415 38.885292 -2.0661042
68.258789 38.886864 -2.0993567
68.756691 38.842415 -2.1315448
69.250046 38.764755 -2.1643777
69.751534 38.657471 -2.1997969
70.169624 38.55418 -2.231972
74.186455 38.958626 -2.4974241
73.804253 39.331818 -2.4658558
74.074097 39.080223 -2.4886436
99.31649 39.273827 -2.4415627
72.957932 39.991985 -2.3951178
73.247231 39.79644 -2.42026
73.55349 39.545208 -2.4444444
72.327141 40.401329 -2.3460588
72.721512 40.170021 -2.3782389
89.772751 40.141136 -2.455471
71.335373 40.919624 -2.2731335
71.754936 40.720093 -2.3037746
72.093529 40.550812 -2.3298161
69.446236 41.486858 -2.1392329
69.760437 41.428795 -2.1614606
70.255989 41.311749 -2.1967368
70.744698 41.162006 -2.2318161
71.082748 41.032188 -2.255549
67.423714 41.599003 -2.0053751
67.743378 41.615139 -2.0262034
68.236343 41.626205 -2.0597327
68.747734 41.5938 -2.0935555
69.194305 41.529102 -2.1222963
90.231773 42.742748 -2.3647511
74.349266 44.397892 -2.4355378
74.741066 44.162933 -2.4708908
89.91301 44.045609 -2.2625256
71.210274 44.661186 -2.1005013
72.116898 44.573746 -2.1866903
73.392654 44.937157 -2.3552794
73.753204 44.751148 -2.3854718
74.104736 44.548714 -2.4147849
72.457809 45.416283 -2.2841902
72.744812 45.267307 -2.3048966
73.137474 45.078888 -2.3356593
70.438309 45.985756 -2.1287332
70.751656 45.932648 -2.1529255
71.207207 45.829994 -2.1876895
71.777084 45.697762 -2.2338758
72.164993 45.565746 -2.2639875
68.836449 46.154053 -2.0123336
69.246475 46.132427 -2.0415587
69.742805 46.088257 -2.0775399
70.179184 46.044086 -2.1106892
73.919655 50.151218 -2.0141482
74.246811 50.192257 -2.0483716
74.781334 50.264267 -2.1054533
75.254158 50.351604 -2.1579137
75.698654 50.445862 -2.2085652
75.968056 50.507191 -2.2397807
76.263748 50.606533 -2.2755523
76.768082 50.804039 -2.3381715
77.101059 50.978905 -2.381412
77.339928 51.134449 -2.4136479
77.665314 51.36792 -2.4584501
77.878456 51.541878 -2.4885945
81.55188 56.76944 -2.0014775
93.12915 56.653278 -2.0294983
93.525192 57.387711 -2.0392256
98.431381 59.307838 -2.457988
98.600899 59.266426 -2.4772148
98.442017 59.737503 -2.4406521
82.122299 62.81488 -2.0583425
81.787132 63.093296 -2.0255058
99.24157 71.290901 -2.0576229
99.667854 71.258339 -2.1001391
99.039162 71.621086 -2.0256314
105.13817 75.746506 -2.4616203
104.03207 83.421402 -2.0674355
104.54625 83.784889 -2.1028774
106.65111 85.676971 -2.2335703
108.31551 85.972771 -2.3815477
108.54234 85.874634 -2.4069512
107.7522 86.432755 -2.3106859
105.80734 87.856773 -2.0749786
106.01933 87.738503 -2.0991294
52.461632 -8.036108 -1.881408
52.795563 -8.1760159 -1.9143671
53.09042 -8.3134823 -1.9443209
48.851315 -7.5684547 -1.5887277
49.245731 -7.7340174 -1.6283164
49.792099 -7.7612362 -1.6700482
50.277233 -7.7436695 -1.7043314
50.706116 -7.8345866 -1.7413979
51.199707 -7.7742991 -1.7734009
51.501762 -7.7788639 -1.7956016
52.201221 -7.9320965 -1.8559828
52.782475 -7.9566517 -1.8994467
48.102665 -7.2870159 -1.5154846
47.319248 4.8577785 -1.7821076
47.403263 5.2092009 -1.7538295
59.361649 5.224453 -1.5321021
47.473862 5.7007742 -1.7117773
47.515083 5.7441425 -1.7099471
47.436218 6.2176352 -1.6616057
77.624191 6.1976604 -1.7855668
47.499363 6.679369 -1.6220245
47.55957 6.9005527 -1.6046813
47.753265 7.3392134 -1.5742719
47.672272 7.5624838 -1.5492233
47.995064 8.1237946 -1.5143454
48.002441 8.276968 -1.5005369
79.243935 8.4588165 -1.781172
83.928757 8.0459213 -1.9681616
83.46315 8.8056335 -1.923687
83.556984 8.8293056 -1.9259231
83.200104 9.9988098 -1.8692334
63.579758 10.088956 -1.5215143
56.421318 10.768475 -1.7250977
56.753448 10.52607 -1.7667608
57.255966 10.634951 -1.7847359
57.727791 10.645064 -1.8105161
83.944252 10.822474 -1.8603599
86.361115 10.779106 -1.933306
54.91399 11.391678 -1.5826225
55.064472 11.341896 -1.5955808
56.375275 11.317625 -1.6704587
86.506714 11.016266 -1.9272091
88.484192 11.186041 -1.9726057
89.287422 11.366764 -1.9847269
55.712231 11.793191 -1.5887257
56.139843 11.626061 -1.6281744
77.460464 11.895748 -1.5936294
84.109299 11.513985 -1.8372812
89.38633 11.535458 -1.9793744
63.724876 12.368828 -1.996825
77.471359 12.011059 -1.5901661
77.774963 12.108018 -1.5988727
78.090141 12.175713 -1.6087828
85.563316 12.062727 -1.8559432
63.808289 12.911316 -1.9492555
81.094246 12.953976 -1.6861293
84.142906 12.54813 -1.7952504
85.835106 12.728523 -1.8342125
89.722374 12.737795 -1.9305942
63.790211 13.070421 -1.9327133
80.263092 13.376744 -1.6426308
63.857967 13.743402 -1.8715401
76.962219 13.964103 -1.5033548
77.301216 13.997172 -1.5151701
81.360847 13.909763 -1.6566427
82.757919 13.870893 -1.6997623
84.138199 13.772811 -1.7426286
85.950722 13.849951 -1.7867672
86.165787 13.769631 -1.795877
63.909195 14.347171 -1.8160882
77.404579 14.291636 -1.508675
77.618431 14.17823 -1.5206327
78.747643 14.183342 -1.5608711
85.800781 14.390697 -1.7581224
86.87606 14.263392 -1.7903495
63.945805 14.849017 -1.7696489
79.064117 14.823179 -1.5475035
89.820923 14.67627 -1.8369207
64.009445 15.410812 -1.7190447
64.966667 15.403918 -1.7780859
65.254501 15.464056 -1.7900124
65.745979 15.468364 -1.8201498
66.252289 15.440461 -1.8546628
66.756424 15.402039 -1.8903843
67.160187 15.308457 -1.9253536
82.645264 15.345007 -1.6333915
51.334507 15.952102 -1.7183768
51.657204 15.838681 -1.7390589
63.917236 15.635768 -1.6916898
83.292465 15.936739 -1.6240094
50.456726 16.36146 -1.6519655
50.759968 16.212847 -1.6755252
51.107044 16.053795 -1.701486
83.326332 16.000305 -1.6219773
89.915573 16.428226 -1.7476034
82.273933 16.55681 -1.5697432
89.910187 16.634287 -1.7364473
50.253639 17.265713 -1.5477694
64.210365 17.314625 -1.7219642
89.944611 17.411728 -1.6948047
50.344196 17.630947 -1.5098468
56.453014 17.929531 -1.6229107
56.575455 17.798231 -1.6416942
64.190834 17.709177 -1.7902398
82.221443 17.532146 -1.5237423
56.419792 18.217609 -1.5884531
56.535286 18.38892 -1.5716417
57.154686 18.007881 -1.6334319
64.216072 18.336481 -1.8530545
76.907562 18.161747 -1.8418119
77.547264 18.133215 -1.8782828
82.614983 18.038437 -1.5092564
64.231667 18.775974 -1.7967162
79.142487 18.960922 -1.9071878
90.03299 18.648302 -1.6270024
64.271988 19.306982 -1.7297688
64.290039 19.801243 -1.737093
75.932434 19.606562 -1.6930906
78.283653 19.848129 -1.8018095
64.303764 20.271881 -1.7622558
75.798874 20.350266 -1.6363585
76.916168 20.139803 -1.7100639
77.41729 20.393417 -1.7193127
64.317673 20.735003 -1.7111725
75.7761 20.646599 -1.6153214
77.266464 20.892277 -1.6774437
64.347054 21.221523 -1.7269109
80.498001 21.46109 -1.8033648
64.322586 21.807272 -1.7397134
53.297073 22.431561 -1.6300662
64.301765 22.191198 -1.8258562
83.242249 22.433794 -1.8700542
52.873974 22.864292 -1.5865587
53.127281 22.602947 -1.6126583
64.444435 22.820404 -1.6377743
