# .PCD v0.7 - Point Cloud Data file format
VERSION 0.7
FIELDS x y z
SIZE 4 4 4
TYPE F F F
COUNT 1 1 1
WIDTH 1586
HEIGHT 1
VIEWPOINT 0 0 0 1 0 0 0
POINTS 1586
DATA ascii
59.054955 27.625708 0.027009135
59.915901 27.585886 0.25903723
60.147015 27.554823 0.23166704
79.882767 27.732868 0.17927432
80.004822 27.829681 0.18798247
81.124481 27.593216 0.23253015
85.753151 27.883234 0.47559726
86.16362 27.90284 0.49790493
46.445515 28.386787 0.048601426
51.66037 28.453272 0.3348619
85.786896 28.223518 0.493523
46.430912 28.723248 0.079995491
51.694756 28.810987 0.36022344
84.946365 28.933764 0.48418567
51.297501 29.256723 0.42742667
51.551853 29.085964 0.39340514
84.210251 29.332163 0.46523836
84.806763 29.085653 0.4844822
51.238762 29.517227 0.45286444
83.845741 29.71409 0.46575376
51.268173 30.487808 0.011015862
83.352699 30.215042 0.46622232
83.69162 30.366835 0.4933891
51.831127 30.837194 0.016052192
83.612793 30.519745 0.49783722
51.846016 31.288752 0.056172241
51.723225 31.760807 0.10438238
50.344765 32.072533 0.1969851
50.737694 32.320988 0.2006025
51.424469 32.170063 0.15497513
51.672413 32.070171 0.13443051
50.223888 32.834492 0.27002326
50.831528 32.697266 0.22948007
51.244286 32.913059 0.22919501
83.443932 32.865776 0.0035273135
83.528198 32.980995 0.01430884
84.187836 32.7533 0.012029558
50.289959 33.0686 0.28750768
50.726307 33.070335 0.26725522
83.646965 33.232002 0.036598764
84.031158 33.384125 0.057432443
34.616962 33.858162 0.0097385943
83.706818 33.630486 0.069541186
84.24276 33.85717 0.10036653
31.711472 34.287533 0.080734044
34.550484 34.016647 0.024335772
84.150047 34.25201 0.13075905
31.761322 34.923996 0.13492361
84.302055 34.608414 0.16425939
84.796692 34.83543 0.19528201
31.775112 35.279526 0.16505513
41.566971 35.144669 0.040240735
50.822456 35.17659 0.44501579
84.620605 35.202278 0.22304325
85.044685 35.48127 0.25757983
31.784767 35.755527 0.2052228
85.129883 35.55624 0.26625231
85.865997 35.658527 0.29262117
86.062851 35.840118 0.3135674
31.822304 36.287174 0.24933675
35.031796 36.22567 0.20687959
85.943687 36.012386 0.32639423
86.192253 36.135868 0.3434628
86.735359 36.281593 0.36947134
87.07103 36.418171 0.38987085
31.854094 36.831139 0.29410425
34.375473 36.687576 0.2528452
35.79776 36.802677 0.24570861
36.015972 36.992828 0.258742
87.113281 36.531212 0.40132299
87.730705 36.833752 0.44389695
88.052505 36.763599 0.44474033
31.872217 37.300243 0.33243456
47.826141 37.340553 0.14654171
87.82196 37.136501 0.4745777
31.909266 37.76535 0.36985952
31.939533 38.287014 0.41158006
34.600105 38.38641 0.38790396
54.634109 38.402145 0.13742116
31.958647 38.69313 0.44381359
33.940083 38.795322 0.42822906
31.995365 39.271618 0.48917249
51.143166 39.984287 0.29614943
51.332058 40.222488 0.30929756
50.958858 40.719612 0.34793976
51.129375 40.837883 0.35297608
51.59494 40.960056 0.35347247
89.711403 40.98217 0.02421394
91.046768 40.946445 0.0031976998
51.709911 41.195431 0.36658117
89.460838 41.27618 0.056675225
89.547768 41.119781 0.039996814
90.930252 41.153706 0.025085658
91.00193 41.029919 0.01197198
51.406834 41.744362 0.40612766
51.580555 41.86705 0.41074038
89.386292 41.836395 0.11371729
89.727585 41.707073 0.096081048
50.923382 42.374947 0.45344111
51.74765 42.212452 0.42887843
88.43309 42.122589 0.1558868
88.858513 42.258366 0.1637418
92.290794 42.887482 0.17968169
93.923401 42.57756 0.12638035
94.411842 42.867401 0.14871696
89.266998 43.167625 0.25107297
90.172493 43.245228 0.24595574
91.65786 43.445038 0.24519196
92.294136 43.041626 0.19521335
89.366013 43.575569 0.29185882
89.748459 43.57143 0.28578982
91.278534 43.520416 0.25832811
91.62001 43.533699 0.254805
90.201675 44.22369 0.34694454
90.862976 44.272041 0.34210333
90.622963 44.733959 0.3940773
51.298794 45.377541 0.0042177141
90.462677 45.021225 0.42679468
90.666527 45.30933 0.45413354
51.189884 45.826393 0.018193752
90.449135 45.629719 0.49164018
90.591904 45.535744 0.47936106
50.992584 46.447033 0.03671208
51.107258 46.300259 0.032655269
51.079849 46.746319 0.045965087
50.966976 47.224091 0.0595343
51.045761 47.374428 0.063920707
51.070648 47.57415 0.069458157
50.96701 48.49963 0.093774468
51.18124 48.109211 0.083700925
50.939556 49.452248 0.11692867
49.342937 49.678478 0.12463942
50.865292 49.785656 0.12481219
51.111511 49.894119 0.12633881
48.631821 50.124222 0.13621464
50.944023 50.231956 0.134424
51.039196 50.34552 0.13641568
50.990459 50.716961 0.14446095
51.042057 50.736237 0.14455386
50.964863 51.259411 0.15554795
51.052212 51.155525 0.15295097
50.985191 51.587994 0.16182306
51.043549 51.813107 0.16563614
50.99984 52.345909 0.17574432
51.019588 52.145958 0.17196628
50.91518 52.700367 0.18276937
47.796143 53.213905 0.2127482
50.805317 53.228374 0.19291489
93.402267 53.459816 0.12542531
95.19548 53.484947 0.039113253
50.663353 53.740685 0.20292917
92.347733 53.84922 0.21514824
92.723129 53.631363 0.17556742
93.179077 53.588776 0.14882796
94.365173 53.954662 0.12491983
94.669861 53.723122 0.087757908
95.022125 53.520149 0.051017165
50.474964 54.187622 0.21224609
51.120464 54.454407 0.20875326
90.849464 54.144718 0.31855094
91.402824 54.292648 0.30501899
91.770409 54.211678 0.27880698
92.052521 54.057884 0.24990669
50.230728 54.720596 0.22349897
90.693001 54.815514 0.39118394
91.007721 54.544411 0.34913793
44.737377 55.398895 0.27210784
50.115993 55.237381 0.23293725
90.452301 55.246609 0.44505838
90.618225 55.207535 0.43287933
90.384003 55.750664 0.49739462
90.704575 55.746143 0.48069397
48.821499 57.462944 0.28253141
38.419342 58.883896 0.36409393
39.789677 58.97065 0.36681381
58.743752 58.962303 0.037297875
105.89142 58.92757 0.029095054
106.04314 58.722382 0.0022115409
34.369873 59.389847 0.36738291
38.60817 59.051674 0.36881223
39.79232 59.306847 0.37531558
47.056286 59.16404 0.32981887
105.29339 59.328781 0.09656857
105.77764 59.241478 0.064445063
38.912132 60.318615 0.40149871
68.957649 60.357288 0.33713987
69.268906 60.343506 0.31428754
69.567261 60.224049 0.28867403
70.144073 60.385296 0.25184894
38.835098 60.75169 0.41226402
68.735054 60.72942 0.36548722
70.426987 60.915169 0.24894705
70.519249 60.905312 0.24175659
68.994606 61.280655 0.36553147
68.415489 61.944645 0.42871264
68.509834 61.93396 0.42173865
68.679367 62.127361 0.41627911
69.499741 62.193985 0.36005142
69.62059 62.313141 0.35535184
53.339115 62.684223 0.23774371
54.458248 62.836334 0.20382014
54.737282 62.836651 0.1946514
70.156906 62.864273 0.33501926
70.985458 62.745392 0.26982978
71.144012 62.778412 0.25911191
56.835423 63.971233 0.12133232
57.164806 63.956089 0.1081163
56.295177 64.292198 0.14299534
56.535557 64.249664 0.13361207
57.430885 64.18853 0.097524554
57.629486 64.250923 0.089304514
57.738968 64.670486 0.085065514
59.376026 64.898163 0.011743098
57.762901 65.014885 0.084313542
59.141407 65.263054 0.022689253
57.829037 65.657608 0.081893593
44.747345 66.370377 0.46218753
44.943596 66.672424 0.46260455
45.202412 66.754013 0.45911792
57.920746 66.723915 0.078395277
59.226357 68.379532 0.017686993
58.709488 69.181808 0.042194039
45.459156 69.895699 0.48723188
57.476498 69.703865 0.099171072
57.6404 69.826447 0.09179607
45.459465 70.16687 0.48978224
57.763313 70.14389 0.086234003
94.822357 70.248428 0.073619992
95.286316 70.195778 0.034784064
93.694336 70.811523 0.19909556
94.176239 70.734306 0.1573399
94.816147 70.624435 0.10124561
93.509094 71.296539 0.24786952
92.519485 71.97596 0.37056091
93.397141 71.797272 0.29220971
93.52063 71.693436 0.27551559
92.369255 72.163895 0.39520192
93.196632 72.209595 0.3367607
92.251556 72.70343 0.44252494
92.421883 73.494843 0.48637757
48.228561 78.426132 0.46912208
48.405483 81.749619 0.4756166
48.502815 81.992859 0.47304645
48.678749 82.813904 0.4694027
48.744225 83.441544 0.46888557
48.745789 83.995453 0.470359
48.714291 84.659973 0.47327247
48.714767 85.24173 0.47474876
49.054588 85.999542 0.4639236
48.606316 86.170135 0.4810411
49.237343 86.040649 0.45711723
55.72588 86.573746 0.17875209
78.870628 86.752281 0.49720731
79.284859 86.880257 0.46951365
79.758392 87.202682 0.44387975
80.046738 87.533897 0.43292537
89.587273 -23.995644 0.93479931
86.361954 -23.461018 0.98429549
86.686569 -23.411169 0.97557008
89.656357 -23.022739 0.90692246
89.683716 -22.503323 0.89235032
89.717865 -22.062744 0.87989581
86.736633 -18.35726 0.82947481
87.070915 -18.388145 0.82423604
76.468826 -13.693783 0.96434271
82.674171 -13.73716 0.7803303
73.98716 -11.612026 0.99066603
83.859894 -11.90744 0.70226443
79.173347 -11.349464 0.79807436
79.625046 -11.115814 0.77783167
72.383293 -9.7867928 0.99647486
74.453217 -8.3206902 0.85814774
74.715881 -8.451767 0.85246933
65.77684 5.8450794 0.77816689
61.565224 9.259285 0.95777762
75.601318 13.768856 0.96222937
76.454353 13.52301 0.98139703
75.181335 14.271498 0.93224227
75.710884 14.349459 0.93072724
75.688568 14.822319 0.90474665
46.916611 17.309959 0.75760555
46.933929 17.740376 0.77729988
46.95105 18.244291 0.8009246
46.9823 18.65357 0.81850785
56.128326 18.779915 0.57616222
47.007854 19.122347 0.83994597
73.273224 19.913328 0.60942727
73.502159 19.566647 0.63012969
47.065956 20.282242 0.8946504
73.406166 20.114273 0.60018831
47.097412 20.762222 0.91700351
49.281914 20.875114 0.69314265
50.230698 20.852142 0.59371996
73.247658 20.749571 0.5652079
47.128639 21.283352 0.94192111
49.149269 21.283417 0.72814995
61.296131 21.314407 0.56949222
73.234856 21.153309 0.54438329
74.797203 21.433722 0.563609
75.132858 21.054659 0.58884048
47.157555 21.779926 0.96610242
49.692574 21.607998 0.68814909
60.580097 21.829821 0.62792802
73.263847 21.840046 0.510795
73.949226 21.846817 0.52431941
74.222641 21.681925 0.53840441
74.774353 21.714764 0.55110472
75.372391 21.887039 0.56209028
76.412437 21.878883 0.59917861
76.624809 21.998001 0.60351884
47.179684 22.225004 0.98848248
50.404873 22.464502 0.65817714
56.953808 22.488283 0.52721107
60.590794 22.198141 0.61605269
63.054707 22.158146 0.82941306
73.493988 22.01667 0.50660253
73.810951 22.198816 0.50533181
74.76506 22.316601 0.52606648
75.243889 22.232872 0.54462057
76.455757 22.127975 0.59258676
50.423328 22.653084 0.66614664
73.835228 22.878471 0.98991245
74.265465 22.692568 0.66836721
74.7603 22.787231 0.50768298
75.231293 22.891861 0.51997679
75.558632 22.708462 0.53845096
76.302223 22.796562 0.5652284
76.577148 22.940485 0.57271475
77.06485 22.637085 0.60301077
78.216263 22.753269 0.65546358
58.931286 23.485737 0.77763975
74.233414 23.195312 0.9880619
74.960358 23.014023 0.50584316
75.053055 23.066879 0.50725615
76.172028 23.047194 0.55202734
63.45052 23.920496 0.67016095
63.625885 23.929888 0.65357018
76.30777 23.6959 0.5397895
76.774124 23.768921 0.56031501
77.142181 23.949352 0.57481098
60.950127 24.176727 0.92716217
63.408424 24.424639 0.63906091
50.211399 24.969757 0.81597495
60.310123 24.653397 0.58234775
63.351246 24.789871 0.61927307
76.467621 24.746586 0.52334678
76.640869 24.752417 0.53249341
46.297127 25.309629 0.51846522
49.972164 25.337704 0.86331332
50.396313 25.455412 0.82385504
57.58897 25.494999 0.50025451
60.15609 25.411793 0.86938596
62.973343 25.466454 0.95289576
76.739609 25.424801 0.52675861
77.435646 25.257202 0.56973517
77.517914 25.390127 0.57318825
46.320389 25.688919 0.54622424
49.754059 25.892126 0.92002356
60.277275 25.69367 0.78607547
60.682178 25.702251 0.87501204
61.232021 25.755486 0.79807818
61.731602 25.763363 0.7338714
63.300594 25.822144 0.81590849
63.593166 25.717993 0.86010057
76.398415 25.546814 0.50548202
76.756058 25.542887 0.52607542
77.465263 25.672209 0.56719691
77.783997 25.665037 0.5871253
78.184181 25.771448 0.61208969
79.000259 25.986219 0.66589665
59.818768 26.267967 0.97148097
60.195465 26.230278 0.8725903
60.616035 26.222784 0.50927913
61.24929 26.312008 0.7642346
61.626926 26.324461 0.71372837
62.868786 26.235949 0.88781768
63.306961 26.158363 0.60887104
79.049202 26.018167 0.66926956
57.491367 26.602314 0.53504395
58.361576 26.728884 0.80759424
58.763374 26.879044 0.74839604
59.172913 26.887293 0.69000536
60.360592 26.908422 0.85966825
60.770046 26.931528 0.79801786
61.986832 26.617271 0.96563852
62.304451 26.796587 0.81703866
62.69334 26.776178 0.7572422
63.114693 26.600914 0.61556244
77.435318 26.756063 0.55959857
77.708664 26.716398 0.57820129
78.949379 26.829338 0.66516531
79.17514 26.917015 0.68218088
87.383179 26.859592 0.51323855
87.792419 26.976267 0.53949714
57.930664 27.114672 0.86973882
58.277248 27.2976 0.81724977
58.597332 27.248055 0.77003855
59.816925 27.243881 0.92901164
60.283684 27.325666 0.72983044
60.702179 27.178909 0.63855195
62.459812 27.01543 0.56801367
62.866848 27.15704 0.51140267
77.909691 27.142881 0.59278065
79.291016 27.179577 0.69316679
79.591827 27.374731 0.71793681
59.983521 27.653145 0.56789184
60.169544 27.585644 0.54320508
61.220581 27.656591 0.99113721
79.634918 27.724791 0.72645175
80.398338 27.887415 0.78904414
46.464893 28.290085 0.74045324
50.398743 28.244787 0.99470299
60.895294 28.395029 0.99002171
61.075603 28.165653 0.97540331
79.658997 28.078863 0.73446876
80.394905 28.044165 0.79206103
80.802643 28.084064 0.82565188
85.772369 28.461842 0.5044148
46.479134 28.53665 0.75906956
50.695557 28.733898 0.99316752
60.818604 28.526108 0.99422598
85.756958 28.578751 0.50942576
50.442562 29.365173 0.50500983
50.550938 29.492199 0.50639939
35.685478 29.809368 0.68376398
50.231876 29.710974 0.54970974
50.505527 29.536934 0.51364338
35.921494 30.368448 0.72217262
51.282738 30.355154 0.51642585
51.459618 30.81675 0.53936303
51.577778 30.726133 0.52246195
83.480659 30.939703 0.51537323
83.583733 30.766665 0.51078802
33.218685 31.435919 0.94248092
50.824894 31.293644 0.62971616
51.386105 31.327459 0.58685565
51.579399 31.201954 0.5609141
83.444237 31.211906 0.53002548
83.596672 31.29104 0.54362285
34.87352 31.9312 0.90846395
35.123135 31.795847 0.88497007
36.410294 31.614029 0.80889368
50.366295 31.99514 0.72469628
50.883183 31.988165 0.68199074
51.29871 31.766853 0.62995106
51.582909 31.828602 0.61186087
83.700211 31.744352 0.57865232
35.276909 32.258625 0.91818929
50.348377 32.099663 0.73479861
50.856094 32.035187 0.68807888
51.649338 32.480503 0.66023839
52.022934 32.496513 0.63109231
83.422729 32.491386 0.61368072
83.795135 32.174587 0.61305559
84.017647 32.217613 0.62872779
35.450752 32.812706 0.95830119
42.696419 32.985718 0.63505983
48.144749 32.702457 0.96484989
51.455666 32.634117 0.68879765
51.582256 32.795818 0.69193298
83.465027 32.743492 0.63417923
83.596649 32.769512 0.64368778
42.703003 33.140739 0.64824748
50.6399 33.452366 0.82392085
51.642822 33.038109 0.70719612
83.375 33.251846 0.6665203
83.549294 33.18874 0.67191708
84.022148 33.422981 0.71722645
83.779747 33.789612 0.73187667
84.051346 33.644943 0.73622549
83.761383 34.269962 0.76974726
47.165306 34.638134 0.56950974
84.334839 34.576332 0.82890838
84.63871 34.804165 0.86622047
41.649109 35.121735 0.86821383
50.916073 35.179771 0.94864428
84.871796 35.042183 0.90056694
85.186142 35.249683 0.93733752
85.533676 35.42878 0.97370827
50.914513 36.406754 0.54467487
51.024532 36.470406 0.54485935
50.876141 36.841785 0.58279163
51.041607 36.69416 0.56273305
51.317684 37.252987 0.59620804
88.52684 37.412674 0.51710534
51.424999 37.760925 0.63300478
88.364937 37.792912 0.55014759
88.598076 37.543068 0.53125226
51.376995 38.179417 0.66950703
51.659729 38.387924 0.67314482
88.337456 38.236675 0.59306145
51.458073 38.884842 0.72292662
51.591179 38.638275 0.69669151
90.893364 38.928947 0.71922684
50.336021 39.466087 0.82295424
50.820778 39.481995 0.80123043
51.41544 39.026867 0.7364049
90.964249 39.074753 0.73541939
91.249397 39.308826 0.76534957
32.018787 39.972183 0.54364407
50.196053 39.566032 0.8376348
50.787487 39.744549 0.82384866
51.05101 39.739685 0.81093329
93.420357 39.984154 0.88184583
93.548599 39.906788 0.87679362
32.062794 40.0839 0.55176771
50.840153 40.230026 0.86008352
51.17424 40.217182 0.84309363
51.774143 40.381298 0.82738328
92.401169 40.434151 0.90594149
92.508949 40.309448 0.89533901
93.89679 40.382095 0.93306476
94.018143 40.408035 0.93836629
52.13829 40.694469 0.83455259
91.994949 40.9692 0.9533695
92.129982 40.708542 0.92879581
51.861374 41.27393 0.89330196
52.121243 41.062634 0.86423397
89.499176 41.277592 0.93444002
89.574142 41.186539 0.92611277
91.958458 41.15543 0.97238481
92.035263 41.178509 0.97644472
51.719902 41.728374 0.93556076
52.482635 41.820049 0.90556312
52.526825 41.883476 0.90830564
88.912498 41.82597 0.98296911
89.117424 41.708088 0.97395957
89.701233 41.558064 0.96918601
51.3619 42.210037 0.99035001
51.893673 42.049667 0.95203435
52.374229 42.202709 0.94037074
52.508064 42.249191 0.93739915
52.320766 42.684891 0.98002309
52.506035 42.64542 0.96789443
50.214745 43.358528 0.52566189
49.90572 43.532726 0.54175889
50.256638 43.717152 0.54613477
50.52 43.877789 0.55054021
50.20565 44.324841 0.58253717
50.536224 44.010326 0.55791771
50.338516 44.531075 0.59174484
44.799187 45.672218 0.76302087
90.461884 45.88401 0.51862949
90.812851 45.885986 0.51321173
47.220299 46.324951 0.75648808
90.402245 46.328297 0.56740564
90.593391 46.309978 0.56226224
51.244217 46.929813 0.70151299
51.775814 46.953426 0.68961495
90.443764 46.664986 0.60308754
51.286522 47.195992 0.71409762
51.763649 47.309307 0.7078371
52.085724 47.294075 0.69882423
91.037231 47.217514 0.65315759
47.188156 47.63007 0.83068848
51.908096 47.639233 0.72051424
91.155807 47.603374 0.69321507
44.802025 48.317757 0.91861218
45.39341 48.280464 0.9044416
45.503376 48.307186 0.90367234
48.451336 48.393776 0.84391665
48.512032 48.437057 0.8447839
49.455406 48.181412 0.80918097
51.786835 48.180717 0.75023162
44.70084 48.714085 0.94304508
49.287334 48.612335 0.83545423
49.588207 48.784878 0.83687997
51.105583 48.836716 0.80042148
44.542995 49.281097 0.97805244
45.769543 49.46106 0.96153688
51.203232 49.280792 0.81926084
50.848724 49.904366 0.85889494
51.234642 49.709312 0.83886147
95.669312 50.035717 0.88190675
96.444191 50.834187 0.95613956
96.526306 50.608192 0.9298712
50.137764 51.150688 0.93792796
96.457748 51.1129 0.98661149
90.294556 55.934681 0.51980752
89.957527 56.203842 0.56313622
90.135292 56.094666 0.54345727
90.114998 56.76696 0.60993564
90.490204 57.49382 0.66160679
90.29866 57.709038 0.6924333
90.604965 57.756824 0.68139195
90.302025 58.275368 0.7476247
90.332146 59.135963 0.83035064
90.549591 59.093204 0.81493241
39.33284 69.954735 0.58800662
44.541637 69.778824 0.50456917
39.336792 70.206108 0.59177983
39.403976 70.897659 0.60119379
39.43399 71.255798 0.6059643
39.463192 71.756134 0.61263728
39.469688 72.298935 0.62002778
39.489578 72.69104 0.6250304
39.500431 72.945107 0.6282407
39.541786 73.315338 0.63244212
39.552803 73.736092 0.63766587
92.191551 73.738457 0.52084303
41.182777 74.49263 0.61856949
43.620762 74.226349 0.56663334
91.991493 74.322777 0.57729554
92.074738 74.150833 0.55888951
44.174774 74.843857 0.55947363
44.149277 75.420181 0.56478059
45.208687 75.416641 0.53887498
43.173122 75.709145 0.58965909
39.445969 76.363007 0.67101252
40.40271 76.096298 0.65051711
40.580357 76.109901 0.64728892
41.150772 76.113373 0.63620341
43.221115 76.141739 0.59229672
45.868202 76.199486 0.52702343
46.216747 76.401718 0.51883066
43.917313 76.552139 0.57928288
44.051651 76.629868 0.57662117
45.098629 76.694366 0.55068648
44.672497 77.040627 0.56409299
45.860077 78.1763 0.53935951
46.09938 78.452446 0.53411829
46.953232 79.40419 0.51357996
47.335426 79.792549 0.5034107
97.703506 83.314987 0.79472601
97.261101 83.916199 0.87013113
97.665703 83.790726 0.83135331
97.095108 84.232162 0.90479857
97.838455 85.98233 0.97423398
77.851044 86.87838 0.58001912
78.398788 86.806274 0.53550529
78.655182 86.700333 0.51206124
77.385941 87.325775 0.6308831
77.626999 87.124527 0.60561931
76.984604 87.679817 0.67343748
77.168297 87.63929 0.658167
76.86937 88.036316 0.69435656
78.543465 88.546249 0.58469284
75.403229 91.638748 0.92606962
75.5858 91.521103 0.90867746
79.197037 99.873238 0.92504346
82.821053 -26.605747 1.1763178
85.792015 -25.764175 1.0670334
86.233948 -25.686575 1.0538088
75.473953 -15.744183 1.0727569
74.605209 -13.579014 1.033305
73.335464 -11.649196 1.019847
73.75032 -11.679501 1.003029
70.254318 -11.11124 1.1468202
71.489853 -11.305069 1.0922877
70.404594 -10.369251 1.1123115
70.698181 -10.106225 1.0880715
71.122559 -10.336502 1.0753912
71.771194 -9.8874903 1.0282874
72.146164 -9.7867756 1.0072907
63.106976 -6.6667747 1.4189576
63.670746 -6.9548683 1.3899161
62.309864 -4.1304512 1.3839389
63.654305 -4.001564 1.2824334
63.388008 -3.9443245 1.2990488
63.522469 -3.9432335 1.2895278
62.785172 -2.9119835 1.3044621
60.043739 -1.8735962 1.4793402
60.909767 -1.652977 1.4014682
61.232845 -1.6554871 1.3760949
86.574745 15.058903 1.2486492
73.819214 19.247686 1.2722793
49.074825 20.190567 1.4505442
73.284142 20.46603 1.1557677
49.416138 20.989323 1.4284087
49.675014 20.631687 1.3846207
50.371719 20.930946 1.3024368
50.797676 20.879702 1.2463224
72.440773 20.879206 1.0990008
72.615196 20.979757 1.0946324
73.40493 20.645437 1.1446556
73.798019 20.793026 1.1458244
49.235077 21.404987 1.4644635
58.850201 21.487595 1.3571767
72.661613 21.030987 1.09144
73.815842 21.097458 1.1224293
74.540619 21.607895 1.1139077
47.190861 22.46261 1.0006154
49.842457 22.226292 1.4089446
63.618542 22.137493 1.2326521
73.394699 22.262997 1.0161546
73.71521 22.340008 1.0236496
74.131836 22.340582 1.0423076
78.167603 22.097359 1.3021832
47.212292 22.748367 1.0144821
49.661629 22.738548 1.4494113
60.404289 22.735847 1.0821866
63.406067 22.873037 1.1753478
63.511093 22.730701 1.1801922
74.220322 22.755943 1.0174277
74.514969 22.897789 1.0227627
75.163818 22.797283 1.0653589
75.53363 22.770542 1.0888296
46.925121 23.280819 1.0762696
47.162567 23.164354 1.0436658
58.190655 23.404295 1.3515111
59.161739 23.354513 1.2127241
73.945938 23.349936 1.4682503
74.263145 23.302877 1.3220998
74.745018 23.21583 1.0147967
75.369095 23.186153 1.0537488
75.635155 23.247925 1.0668321
76.260757 23.417807 1.0989279
76.696915 23.478035 1.1266205
77.233521 23.317362 1.173951
46.325924 23.618784 1.1616963
46.780739 23.584509 1.1097959
47.11549 23.786512 1.0849917
59.370659 23.556391 1.1726743
63.431477 23.847075 1.228199
63.507782 23.926193 1.4492629
75.459709 23.616915 1.0341341
75.683044 23.586494 1.050575
76.419243 23.604553 1.1002892
77.276459 23.635178 1.1622771
46.290546 24.256357 1.2038035
63.303772 24.068451 1.451422
76.885406 24.277105 1.1032151
77.102036 24.369568 1.1164241
79.360397 24.441509 1.3076487
79.934044 24.394323 1.361694
46.323006 24.741188 1.2297539
48.308334 24.946018 1.0226725
50.222801 24.825157 1.4464692
51.195744 24.671467 1.3073515
77.095703 24.764572 1.0999172
78.944672 24.676598 1.2631603
79.206413 24.699083 1.2864056
79.800858 24.713068 1.3412908
46.347168 25.214188 1.2563282
50.757996 25.467354 1.3970548
62.323868 25.173382 1.421391
76.937096 25.206629 1.0698457
77.269882 25.304663 1.0949285
79.137344 25.388819 1.2627424
80.419052 25.253115 1.3898729
46.374249 25.716661 1.2848564
50.47916 25.509249 1.4374859
59.467716 25.655165 1.0531725
61.377129 25.812542 1.4089787
61.616611 25.923042 1.3115581
63.511036 25.986679 1.1628795
77.415756 25.523891 1.1004772
77.53389 25.56246 1.1098236
78.902832 25.682228 1.2338794
79.376228 25.627975 1.2808343
79.746391 25.680742 1.3162187
80.256058 25.784473 1.3656938
86.232285 25.932968 1.2129778
46.390869 26.165222 1.3115834
51.081207 26.48542 1.3931369
58.790363 26.488976 1.1247528
60.973072 26.304342 1.1433457
61.24403 26.333363 1.1666564
61.60545 26.214956 1.0568208
62.873775 26.329096 1.1944997
63.268154 26.284164 1.169286
63.560051 26.219664 1.1251898
79.219299 26.408377 1.252422
79.724564 26.349615 1.3046198
80.007248 26.306406 1.3339353
85.900162 26.283005 1.1947837
86.130615 26.268661 1.2133681
86.776947 26.134842 1.2626535
50.454117 26.764444 1.4939729
50.844227 26.615108 1.4320982
58.816891 26.892391 1.1987144
59.175148 26.79253 1.0504022
60.93644 26.881271 1.1006328
61.275928 26.794708 1.2635059
61.766853 26.73019 1.3048356
62.299351 26.82288 1.2323713
62.720566 26.887064 1.3292319
63.05431 26.812677 1.4076115
79.455902 26.917343 1.2712835
79.632492 26.853928 1.2902758
85.695595 26.781485 1.1915772
86.446152 26.81068 1.2546949
86.764015 26.899384 1.2840556
58.738796 27.192484 1.1367018
59.17952 27.175615 1.258441
61.457321 27.470173 1.2681379
62.577808 27.043556 1.4406561
79.337334 27.35247 1.2562127
79.732224 27.300072 1.2986448
80.06694 27.412947 1.3344238
86.36911 27.293091 1.2635692
86.692894 27.089886 1.2841922
60.738262 27.886126 1.23034
61.190781 27.698557 1.2213073
79.82856 27.742243 1.3088871
85.442818 27.935886 1.2070012
85.567986 27.73675 1.2107296
50.411118 28.401558 1.003511
60.404243 28.257706 1.2769018
60.714733 28.220119 1.162676
61.092113 28.117706 1.2630744
79.866257 28.096609 1.3143086
85.424294 28.092813 1.2110548
85.819824 28.156239 1.2473158
86.107872 28.338024 1.2792104
50.467842 28.548107 1.0066996
50.650333 28.892666 1.0088034
60.414719 28.50869 1.0695202
60.731911 28.520864 1.0102813
86.155022 28.738464 1.2997011
86.75528 28.931038 1.3606794
49.798286 29.465919 1.1446174
50.494957 29.093994 1.0398784
50.694721 29.325867 1.0328126
84.159645 29.364132 1.1516612
50.295479 29.811359 1.1116828
50.765903 29.793615 1.0566591
83.549194 29.913471 1.1221772
84.237198 29.552994 1.1666545
50.380039 30.355942 1.1402613
50.558315 30.156979 1.1057079
83.322052 30.204536 1.1155745
83.765648 30.255997 1.1576027
84.054314 30.429586 1.1919022
50.456554 30.637741 1.1516131
50.734222 30.843315 1.1344298
83.862495 30.772408 1.1924521
84.018471 30.505898 1.1925669
50.47596 31.321997 1.1993295
50.69854 31.193844 1.1641377
83.792366 31.237476 1.2116146
84.036255 31.302902 1.2374359
50.79208 31.688404 1.1900576
51.127949 31.991522 1.1739322
83.841576 31.730988 1.245025
51.129318 32.246872 1.19331
83.729561 32.204449 1.2643834
84.107857 32.147377 1.2955067
84.643799 32.413494 1.3625798
31.715607 32.738407 1.1261972
33.468102 32.568348 1.0296215
49.759903 32.719742 1.3898149
51.29808 32.702576 1.2090137
84.222626 32.953613 1.3608996
84.757927 32.670155 1.3907306
31.754131 33.151108 1.1601701
34.719448 33.227383 1.028396
50.868462 33.278988 1.3050097
51.150894 33.156818 1.2621845
83.861374 33.08614 1.3367779
84.183212 33.285233 1.3813819
34.40736 33.60627 1.0757344
34.774685 33.514111 1.0506328
35.227882 33.90078 1.0628724
35.673729 33.759232 1.029862
83.720573 33.701786 1.3696692
84.161423 33.806156 1.4191439
34.676888 34.140244 1.1092066
35.174416 34.153595 1.0871449
84.281181 34.025051 1.4476111
84.785088 34.077881 1.4990785
31.885244 34.835609 1.2991294
47.387882 34.770329 1.2020906
31.868465 35.010483 1.3148881
32.679058 35.455059 1.3150769
50.935173 35.167171 1.456026
32.708866 35.795555 1.3427156
34.485775 35.849838 1.2644436
35.90329 35.905025 1.2030085
85.799194 35.585541 1.003441
86.039848 35.874371 1.0440534
86.652802 35.662121 1.0603584
35.89851 36.108131 1.2204877
37.375546 36.257866 1.1642699
50.863445 36.31913 1.0521014
85.973511 36.085583 1.0598898
86.124733 36.143368 1.0741736
87.479797 36.44738 1.181968
35.667828 36.737278 1.2845646
50.987152 36.709724 1.0763437
51.051361 36.785469 1.0777924
87.738579 36.774456 1.2285784
32.642246 37.391331 1.4810404
34.656097 37.017765 1.3554951
36.062492 37.019455 1.289975
50.700428 37.345364 1.1560223
51.086018 37.177685 1.109689
88.599861 37.214767 1.3217121
90.967453 37.369308 1.4741547
33.863792 37.515961 1.4344932
50.900463 37.709351 1.1721677
51.07069 37.771713 1.1638559
89.087517 37.841969 1.4129885
90.842735 37.62434 1.4922692
35.251774 38.026577 1.4125377
50.957306 38.03017 1.1962419
51.237255 38.253071 1.1935132
89.194931 38.150208 1.4508704
50.348267 38.946629 1.3283745
50.920387 38.732075 1.2624947
51.351452 38.536369 1.2097812
50.274769 39.106483 1.3488305
49.960442 39.654991 1.4242007
50.162617 39.801598 1.4212101
50.787712 39.878094 1.3776387
50.73476 40.06823 1.3993602
50.966171 40.912148 1.4585959
51.274055 40.83942 1.4270946
51.841293 40.822437 1.3799294
52.142006 40.633301 1.3381858
96.630905 40.687073 1.0241798
51.496872 41.092342 1.4327054
51.732777 41.122959 1.4166443
52.166527 41.251213 1.393878
51.638554 41.734348 1.4813699
52.338203 41.579926 1.4109749
52.698708 41.761803 1.3993609
88.888062 41.996765 1.0015233
92.421768 41.658527 1.0359195
94.016083 41.955711 1.1010315
52.398453 42.365688 1.4803299
52.670296 42.07122 1.4308456
88.825203 42.196022 1.0226486
89.081482 42.141224 1.0214773
92.491219 42.482376 1.1270076
96.150902 42.379581 1.1910368
88.990196 42.924156 1.1085093
89.3078 42.804653 1.1008315
89.656708 42.642738 1.0890851
93.593292 42.8993 1.195078
88.957733 43.004578 1.1171403
89.126862 43.20219 1.1430373
90.255692 43.843224 1.2379009
89.434387 44.352409 1.2831174
90.195282 44.016663 1.257005
90.981262 44.206703 1.2933069
91.941528 44.349834 1.327369
91.13237 44.61845 1.3441613
48.477188 45.421173 1.3785726
48.716915 45.433578 1.3676834
91.264732 45.33736 1.4315599
91.545525 45.030758 1.3999736
92.02092 45.109707 1.417591
91.18721 45.775879 1.482852
47.669777 46.277138 1.4837117
49.64529 46.458458 1.3991235
50.28376 46.350754 1.3589991
53.344254 46.458492 1.2112913
48.190975 46.589783 1.4816031
48.701191 46.627373 1.4590399
50.228622 46.602345 1.3806299
51.276279 46.806725 1.3428844
51.526455 46.974514 1.3425964
53.474022 46.577282 1.21331
53.523808 46.610275 1.2131535
48.967903 47.049973 1.4775525
49.032364 47.13364 1.4806058
49.917366 47.023964 1.4278694
50.296497 47.386978 1.4357805
50.728981 47.406376 1.4152548
51.407116 47.337372 1.3755512
51.532822 47.313282 1.3673323
53.307079 47.22636 1.2694803
50.027637 47.550335 1.4615779
50.616714 47.638565 1.4381988
51.779152 47.978615 1.4037068
50.771873 48.424458 1.4883683
51.361687 48.058159 1.4310689
45.67112 51.195869 1.0557888
96.622559 51.407295 1.0162244
47.780716 53.226593 1.1024845
48.603912 53.492138 1.0915571
93.25103 53.474743 1.3140887
39.593018 53.942825 1.340373
48.298882 53.636711 1.1071205
48.584255 53.779156 1.1054335
49.009109 53.968044 1.1015099
92.800941 53.728271 1.352746
93.930191 53.643547 1.3196238
94.152374 53.575623 1.307322
39.745285 54.382759 1.3607451
48.20256 54.485764 1.1492765
90.43647 54.457951 1.4900101
90.822884 54.424564 1.4772829
91.333839 54.350315 1.4570538
91.615623 54.225479 1.4361491
92.284943 54.275452 1.4274052
92.635559 54.095737 1.3989007
39.263187 54.964558 1.4027524
39.839222 54.880905 1.3852234
48.283516 54.604687 1.1523292
90.488129 54.540642 1.4986271
38.79023 55.259506 1.4291524
48.011238 55.420601 1.197731
38.200005 56.324333 1.499316
38.963943 56.317333 1.4812422
39.107857 56.360489 1.480124
107.37836 57.392467 1.4871186
68.925369 59.937584 1.2151747
69.05275 59.891449 1.20353
69.619392 60.062622 1.1773316
68.262062 60.725906 1.3130413
68.604218 60.897121 1.3020806
69.382866 60.89637 1.2501915
70.292221 60.978745 1.1947918
68.973297 61.26091 1.3024186
70.130264 61.125797 1.2157667
70.814293 61.155216 1.1716055
71.226822 61.357956 1.1575234
68.783478 61.711498 1.3458076
69.798042 61.977615 1.2963562
70.628517 61.75264 1.2251041
69.463463 62.043087 1.3232096
69.669937 62.088722 1.312531
70.120453 62.151081 1.2865977
99.236229 68.25074 1.2640233
99.269363 68.869293 1.3230398
99.287567 69.244141 1.3589319
99.31218 69.630211 1.3956218
99.350075 70.156792 1.4454751
99.371796 70.549835 1.4830543
97.21698 86.538956 1.0593501
65.357178 87.714088 1.4867983
65.816002 87.544884 1.4516667
66.275986 87.605789 1.4238808
66.649948 87.860565 1.407926
67.999481 91.411209 1.4364988
67.809128 91.571495 1.4544674
68.304092 91.572746 1.4215297
68.710831 91.751114 1.4001818
69.020157 91.924973 1.3851224
67.632072 92.090698 1.4834141
69.236992 92.179489 1.3789209
71.815491 93.773216 1.2546526
72.100288 98.403473 1.389443
64.176567 -16.5499 1.708747
64.000229 -16.49316 1.7185618
60.733284 -13.558243 1.8459252
61.210384 -8.5915375 1.6291404
61.783993 -8.9311142 1.5982391
60.906296 -8.4864922 1.6486055
59.90361 -6.3895912 1.6521019
60.117928 -6.3858719 1.6347369
60.893341 -4.6977997 1.5125285
46.931671 16.393822 1.6281559
46.944168 16.718412 1.6344754
46.994015 17.38722 1.6449215
46.99398 17.799232 1.6557153
47.026077 18.292665 1.6648539
47.036877 18.698956 1.6747242
73.806435 18.624405 1.9694291
47.070858 19.225536 1.6854017
47.097164 19.693666 1.6958538
75.916946 19.513359 1.9848038
47.134079 20.333763 1.7107315
58.203754 20.030537 1.5257703
73.991188 20.266514 1.7916151
74.201836 20.365475 1.7923073
74.509697 20.308956 1.8153523
47.151016 20.602224 1.7170213
51.067963 20.974728 1.9180757
72.919731 20.792059 1.6810594
73.080925 20.839085 1.6828862
74.285461 20.931183 1.7360593
74.622345 20.844631 1.7655245
75.542839 20.776264 1.8329793
47.187267 21.376564 1.7378001
50.830513 21.217258 1.9552017
51.123474 21.029039 1.9096088
72.897362 21.43928 1.606331
73.362457 21.108425 1.6661882
73.576187 21.335125 1.6524493
74.354233 21.078861 1.7246256
47.199757 21.686628 1.7468181
48.253036 21.714533 1.6052598
50.849064 21.696743 1.9538509
72.849373 21.611979 1.5845562
73.110703 21.536083 1.6059111
74.208611 21.937069 1.6268123
77.433655 21.597023 1.9100047
77.627045 21.749756 1.9152099
47.231007 22.259323 1.7629261
48.418362 22.102774 1.5958583
73.146027 22.281122 1.526215
74.362411 22.07782 1.6226736
74.794632 22.142309 1.6464516
75.705269 22.253857 1.7059488
76.956802 22.291729 1.8101629
77.114777 22.380241 1.8175646
77.914246 22.119001 1.9135035
78.124474 22.034317 1.9402519
47.251862 22.752468 1.7782843
50.628002 22.648392 1.9947499
63.448055 22.81708 1.6104617
63.601879 22.729626 1.6072012
74.068787 22.89109 1.5216866
74.729446 22.824892 1.576638
75.286568 22.897539 1.6140232
76.186386 22.717239 1.7060854
76.769112 22.686991 1.7613949
77.330399 22.987453 1.7915422
77.683174 22.847618 1.8367593
78.486145 22.623659 1.9340869
78.634567 22.654457 1.9474081
46.911724 23.330917 1.8478932
47.199352 23.131155 1.8000203
49.074661 23.068668 1.5399567
61.677849 23.320957 1.7539959
74.749496 23.171661 1.5462303
75.112717 23.214428 1.5715208
75.880295 23.111526 1.6461339
76.660965 23.161232 1.7139155
77.412544 23.387789 1.7708282
77.905838 23.478283 1.8156902
46.364517 23.732555 1.9410547
46.629707 23.616783 1.8989333
47.105347 23.737442 1.8372492
59.975227 23.804657 1.512584
74.949081 23.759298 1.5102079
75.153633 23.681194 1.5344913
77.935928 23.56415 1.8132042
78.264488 23.874203 1.82933
46.346664 24.330301 1.9693009
62.950844 24.473938 1.8194878
63.15855 24.257648 1.8310341
63.839111 24.444412 1.7206125
77.808029 24.152729 1.7621673
78.091293 24.294739 1.7846638
46.377014 24.810982 1.9865015
63.258743 24.818085 1.7219877
63.658978 24.623009 1.7089428
77.818863 24.803827 1.7245533
78.33979 24.888721 1.7802824
78.560013 24.631205 1.8196193
46.392002 25.070335 1.9962548
51.058807 25.453693 1.9620484
61.060196 25.129818 1.6146327
61.577572 25.45816 1.8593241
62.851299 25.444225 1.667014
63.352085 25.085373 1.6639501
63.520145 25.077866 1.6452265
77.410706 25.088095 1.6620221
77.539856 25.198284 1.670645
78.301918 25.291105 1.7556862
78.699005 25.451841 1.7964603
83.203743 25.447651 1.6752566
49.355412 25.845955 1.6093459
49.731529 25.913799 1.5591062
51.13699 25.641912 1.9525791
60.635803 25.818399 1.9742678
61.405949 25.838123 1.8290051
61.758545 25.782742 1.777355
62.933472 25.626873 1.6248206
63.092525 25.660746 1.5978165
78.199364 25.802042 1.719365
79.523918 25.923077 1.8820914
80.394218 25.942646 1.9957544
85.308899 25.94993 1.9078518
85.762741 25.916027 1.9587027
51.502666 26.469711 1.9084109
58.706013 26.497652 1.9066366
60.541473 26.00119 1.9656578
61.564426 26.329031 1.7247061
77.901787 26.266562 1.6624765
78.176064 26.396755 1.6918832
78.935165 26.26144 1.7941679
79.263145 26.219116 1.8382542
79.501411 26.271627 1.8677286
80.314682 26.058533 1.9818417
85.295197 26.038044 1.907077
85.608322 26.066139 1.9427286
51.343018 26.672558 1.9407158
58.413658 26.660847 1.5657332
58.642902 26.689049 1.646361
61.392879 26.560862 1.7200295
61.784492 26.577192 1.6475784
62.29398 26.644615 1.5508267
79.319008 26.958204 1.8241472
79.562141 26.625631 1.8655318
83.393463 26.726078 1.6990235
83.699524 26.512981 1.7317148
84.149368 26.925285 1.786548
85.31868 26.911297 1.9205872
59.770752 27.426617 1.937223
60.890232 27.398737 1.6958345
61.045795 27.246149 1.6855141
79.158562 27.321831 1.7938429
79.848763 27.234121 1.890715
80.128624 27.312271 1.9283518
85.498276 27.079765 1.9442278
85.72879 27.189056 1.9731492
50.185188 27.801834 1.5814509
59.900406 27.775484 1.5365242
60.410427 27.792404 1.7456551
60.75227 27.702719 1.6831279
61.000229 27.566687 1.6492926
79.921341 27.851778 1.8916663
49.904518 28.310997 1.6482239
50.321194 28.210443 1.5824064
50.539215 28.429352 1.5618703
60.401398 28.150581 1.7020727
60.578167 28.374428 1.6335644
79.892456 28.015232 1.8858203
49.736671 28.680601 1.6925402
50.035828 28.615864 1.6452076
85.255051 28.919365 1.9610208
50.429276 29.307959 1.625405
50.658306 29.190084 1.5851036
84.962601 29.189022 1.934417
85.184555 29.235966 1.9631469
50.671925 29.741951 1.6143188
85.290314 29.536184 1.9869002
50.795517 30.233877 1.6250855
85.002289 30.292315 1.9821595
50.401764 30.925484 1.7270321
50.910431 30.706854 1.6369635
51.041553 30.956743 1.6331158
84.147728 30.758877 1.8968781
35.792328 31.449587 1.8690563
50.450169 31.102148 1.7312443
50.630775 31.30168 1.7172747
83.749161 31.399723 1.8783829
84.085869 31.151382 1.9080662
35.82975 31.609962 1.8794597
36.182587 31.853535 1.8710924
50.624039 31.736965 1.7476999
83.742775 31.694204 1.8934387
84.210556 31.91684 1.9652582
36.354961 32.252132 1.8905748
50.928555 32.248821 1.7375078
51.130505 32.311764 1.7113844
36.456932 32.78437 1.9271972
36.594917 32.547195 1.8958551
48.25116 32.605034 1.5568634
51.277348 32.731174 1.7195876
51.541714 32.96505 1.6967989
48.960503 33.249538 1.525743
49.081486 33.146461 1.503239
51.483295 33.301479 1.731331
51.622822 33.235043 1.7050253
50.935505 33.859383 1.8591439
51.089603 33.756168 1.8272195
51.782333 33.549797 1.7051127
52.162388 33.928875 1.6773678
50.227394 34.063934 1.9839526
50.898834 34.229313 1.895123
51.054989 34.428421 1.8879136
51.610641 34.229343 1.7863077
84.790459 34.316154 1.5191686
85.058868 34.268349 1.5403126
47.492157 34.913639 1.8374864
47.501114 34.972862 1.8415693
50.849571 34.650795 1.9383196
51.175049 34.81015 1.9023355
84.738159 34.740089 1.5501634
39.525017 35.376041 1.8975836
41.739006 35.127319 1.6949977
47.418907 35.033138 1.8564388
51.274044 35.096104 1.9122338
84.924767 35.079487 1.5974058
85.335312 35.357761 1.6610653
85.605904 35.361519 1.6867275
39.654095 35.599747 1.9063387
85.305077 35.600048 1.6805604
85.747597 35.717819 1.7330434
87.268494 35.898842 1.8925658
39.229668 36.136829 1.9875752
50.716354 36.299347 1.5831355
87.269035 36.202263 1.921778
87.623337 36.225586 1.9572735
50.462677 36.647003 1.6448246
50.580975 36.805561 1.6457819
48.096062 37.386398 1.9901415
49.555134 37.252495 1.8073827
50.627861 37.270828 1.68411
31.916357 37.759403 1.5459367
49.28466 37.960114 1.9063853
49.770237 37.716228 1.8264976
50.336323 37.699642 1.7590388
90.971092 37.728207 1.5100936
31.859137 38.152622 1.5816606
49.343132 38.06535 1.9097608
49.887764 38.120514 1.851897
50.036194 38.371784 1.8592545
51.571949 38.319763 1.6764232
89.630569 38.426128 1.5045339
51.592701 38.520649 1.6940331
90.782188 38.802879 1.6099766
50.606079 39.426243 1.8991351
90.643738 39.243099 1.6491032
91.706512 39.009911 1.6845719
50.677498 39.631565 1.9119732
92.227196 40.293259 1.8533689
49.923088 40.729164 1.5256969
50.003361 40.821846 1.527771
51.362625 40.834908 1.9603366
51.631813 40.891022 1.9360104
91.794975 40.819767 1.8885264
93.456589 40.888969 1.9887739
49.585083 41.243397 1.6004359
51.780781 41.239815 1.9570637
52.163773 41.350422 1.9262599
89.311195 41.395836 1.8194389
89.503922 41.269478 1.8148571
90.050446 41.280575 1.8459206
91.929359 41.047112 1.9219469
92.07135 41.270878 1.9555525
52.268341 41.774727 1.9615343
89.225395 41.550514 1.8333112
90.481277 41.998543 1.9548401
92.238564 41.503571 1.9917353
52.380428 42.037041 1.9782859
52.817974 42.409916 1.9721938
53.247269 42.409271 1.9251763
89.097069 42.496841 1.9423198
89.832115 42.241947 1.9497424
90.521286 42.198795 1.9812108
52.194912 42.525238 1.5116113
53.162437 42.764729 1.975193
89.410439 42.690235 1.9829074
51.365601 43.478642 1.6679138
52.744743 43.232449 1.5354402
50.683342 43.585346 1.732131
51.505905 43.521255 1.6608621
49.927605 44.185116 1.8490164
51.151546 44.274811 1.7607745
51.738228 44.4086 1.7273972
52.019497 44.491905 1.7133037
50.124809 44.579628 1.8709592
51.766113 44.579762 1.7416492
44.948891 45.113632 1.5274007
91.050743 45.973759 1.5045534
91.235054 46.321434 1.5497956
91.562973 46.088215 1.5267075
93.353104 46.411716 1.5951763
47.328388 46.768337 1.5379646
47.542515 46.626968 1.5166198
53.172607 46.8591 1.8539971
53.924774 46.895142 1.7999607
54.00124 46.984505 1.8029429
91.219604 46.692379 1.5949599
94.387756 46.958038 1.6779728
54.124256 47.348 1.82951
44.92646 47.559418 1.7169697
46.235458 47.590794 1.6546326
47.428516 47.861267 1.6156828
47.612984 47.869865 1.6071026
54.228531 47.515152 1.8381397
45.313812 48.005089 1.7317927
45.566837 48.442261 1.752405
48.80835 48.374313 1.584735
45.30191 48.521599 1.7715873
50.475105 48.556114 1.513309
96.581177 49.152996 1.9799179
50.607327 49.624283 1.5850173
51.315842 49.830498 1.5632356
51.529785 49.911263 1.557943
46.44648 50.091076 1.8322698
46.515686 50.144451 1.8327545
50.990334 50.071491 1.5977935
51.459553 50.089779 1.574603
51.698261 50.25647 1.5741771
45.606674 50.60202 1.9128491
51.854408 50.51783 1.5849055
50.951641 51.688072 1.717223
90.384163 54.721684 1.5225137
91.004654 54.659546 1.5009218
90.451172 55.290676 1.5886943
90.555534 55.236008 1.5797253
90.442337 55.730648 1.6415217
90.586121 55.811398 1.6477407
90.396072 56.197281 1.6986167
90.53672 56.272522 1.7042495
90.407661 56.637314 1.751331
90.537498 56.576347 1.7407831
90.336113 57.250011 1.8272269
90.619186 57.110802 1.8032693
107.63565 57.805527 1.5283399
33.363564 58.140091 1.704841
33.548973 58.260738 1.707388
90.60553 58.207123 1.936697
91.090263 58.325386 1.9386626
32.029766 58.676788 1.7630023
90.581261 58.51194 1.9745032
103.46123 58.991631 1.7408367
103.73828 58.980934 1.7341304
104.1597 58.964825 1.7240057
104.71228 58.93594 1.709942
105.2594 58.896484 1.694901
105.69398 58.873405 1.6839653
106.14673 58.856148 1.6734148
106.7508 58.831318 1.6592352
107.19647 58.80471 1.6479158
107.70676 58.795132 1.6373824
108.76204 58.701382 1.6075832
102.92597 59.010284 1.7536477
103.2216 59.024361 1.7493461
32.086575 59.880634 1.8273662
32.183784 61.28064 1.8999234
33.072971 61.505615 1.8909649
37.473701 65.285042 1.9630388
94.694023 70.485161 1.7227651
93.436432 70.94651 1.8357126
93.750465 70.839256 1.8082448
94.234436 70.677711 1.7663561
94.508766 70.512115 1.7352871
95.270798 70.916794 1.7350332
95.645393 70.735611 1.6971964
96.74604 70.894951 1.6548356
97.352287 70.957253 1.6290671
99.381645 70.809654 1.508144
92.862503 71.361244 1.9078525
93.167236 71.105171 1.8659493
96.437675 71.050697 1.6865424
99.399506 71.200333 1.5457332
92.626732 71.59037 1.9434147
98.201859 71.529526 1.6410042
98.73642 71.866959 1.6462895
99.442719 71.609566 1.5838464
92.79747 72.21283 1.996435
99.303932 72.103775 1.6399169
65.080002 87.932823 1.5117747
64.892876 88.199036 1.5325156
67.439621 92.28569 1.5026006
93.744522 93.360046 1.791273
94.303253 93.44416 1.756992
94.720879 93.237511 1.712453
96.373169 93.46907 1.6093632
96.728981 93.400612 1.5787845
97.484589 93.144928 1.5059851
93.592529 93.565903 1.8165807
95.412346 93.641403 1.690895
95.77784 93.598221 1.6614753
93.559845 94.024033 1.850948
92.889015 95.245956 1.9842843
93.104248 95.161362 1.962998
60.840511 -25.718567 2.2811773
59.420868 -21.175976 2.22311
57.915184 -19.329159 2.2761881
79.472618 -11.576015 2.4934232
79.677467 -11.67231 2.4959238
81.951492 -11.100777 2.4266083
78.874489 -10.766815 2.4520791
81.989616 -10.738724 2.4036067
81.991852 -10.261639 2.373894
82.305222 -10.38825 2.3787839
80.809982 -9.864006 2.3624284
80.991608 -9.3990479 2.3308551
81.060768 -9.1118927 2.3120224
73.160286 -8.5149269 2.4595845
73.676849 -8.7898369 2.4601066
75.672592 -8.2799988 2.3624635
76.806572 -8.110939 2.3217671
75.94912 -7.8394508 2.3252203
81.490578 -7.5497589 2.2107189
81.991478 -7.5408058 2.2063839
76.096558 -6.8926449 2.2578728
82.063576 -6.8766632 2.1655724
79.457733 -6.4179306 2.1620491
81.73671 -6.4736023 2.1430929
77.217705 -5.9586754 2.1703227
78.227386 -5.5318069 2.1238468
79.593063 -5.894062 2.1271727
78.242592 -5.2541275 2.1057794
78.782204 -5.3471847 2.1034238
62.657925 -0.66915637 2.4816945
61.728233 4.5118847 2.1872227
78.713478 6.4384327 2.4880023
78.325523 6.7502899 2.4536879
78.506111 6.62747 2.4676361
78.622192 7.6091022 2.3831706
77.773651 9.1937513 2.2276258
48.708706 17.713621 2.2789352
48.769432 18.204649 2.2692232
74.270142 20.031057 2.4469554
49.573845 20.739918 2.1497843
77.518051 20.557922 2.0055115
50.447262 21.143875 2.0146019
74.911942 21.256081 2.3327143
75.186501 21.292086 2.3529217
78.759613 21.120548 2.0708687
50.148106 21.71883 2.0644901
74.997337 21.519024 2.3064411
75.15667 21.587164 2.3124659
77.402229 22.334148 2.4659541
79.800087 22.335611 2.0924256
48.961197 22.818369 2.2677681
50.463493 22.77511 2.0223098
50.5401 22.7519 2.0097623
59.541698 22.71513 2.15662
77.282196 22.609331 2.4234664
77.561485 22.737396 2.4444549
81.473572 23.008026 2.2471535
77.347267 23.959038 2.3012908
50.130356 24.307554 2.0969274
77.280807 24.344416 2.2581761
77.839737 24.351139 2.3340106
78.038414 24.315256 2.3645089
78.532585 24.427147 2.425669
50.307877 24.545486 2.0713696
77.957932 24.52606 2.3362167
78.22963 24.654406 2.3650291
78.629906 24.662497 2.4222505
46.400414 25.323095 2.0068736
49.234722 25.189245 2.2663329
60.751202 25.245705 2.0383735
78.396194 25.164257 2.3518748
78.535736 25.197826 2.3702607
46.422852 25.740225 2.0236166
50.764359 25.756172 2.018173
58.281517 25.902615 2.4701629
60.35564 25.734293 2.0411205
60.628819 25.644436 2.0012963
77.978981 25.994337 2.2332828
78.311996 25.594387 2.3099618
78.825645 25.539574 2.3918865
80.433731 25.85302 2.0036299
86.148407 25.917702 2.0023992
86.767014 25.91342 2.072844
49.989639 26.478895 2.1696129
50.045746 26.440351 2.1587822
58.185513 26.086342 2.1480522
77.85849 26.204624 2.201529
78.0858 26.300497 2.2309201
79.709824 26.376747 2.4870803
86.255852 26.373182 2.0204895
86.970856 26.429083 2.1039789
78.236244 26.547606 2.2404382
78.722809 26.584019 2.3163941
81.383141 26.916281 2.1106222
82.745903 26.826469 2.3059037
83.329506 26.70723 2.3909297
83.82811 26.729326 2.4632936
84.033455 26.696316 2.4932044
86.153099 26.663765 2.0131159
50.172234 27.379562 2.1652181
79.462326 27.461197 2.4017923
79.635994 27.245722 2.4389715
83.852386 27.112034 2.4658244
86.815102 27.030876 2.0972738
87.168495 27.174921 2.1422024
46.518806 27.528345 2.1019678
50.22942 27.792931 2.1691821
79.389496 27.650784 2.3830318
83.841545 27.664917 2.4655206
86.96299 27.703104 2.1309206
87.06073 27.819965 2.1457205
50.390091 28.088026 2.1512434
50.629883 28.378571 2.1193357
86.957466 28.016968 2.138926
87.157852 28.15275 2.1671598
50.81332 28.772457 2.1018701
51.072273 28.922821 2.0613675
50.780983 29.267918 2.128372
51.709099 29.104568 2.4878445
85.55098 29.357264 2.0121961
86.615837 29.456451 2.1469133
50.44054 29.577911 2.2039535
50.67918 29.79981 2.1709883
85.601028 29.601002 2.0275834
86.746101 29.661072 2.1714492
50.126923 30.113394 2.2873383
50.687672 30.20413 2.1892498
50.792473 30.726057 2.197211
51.012272 30.819391 2.1616859
84.938911 30.941347 2.0046618
49.493965 31.334234 2.4727211
50.818806 31.280111 2.2235
51.001137 31.031433 2.1754382
50.650066 31.537128 2.2700307
51.162407 31.931316 2.1989913
84.852913 31.984514 2.050904
85.07354 31.883141 2.072948
51.262115 32.256058 2.2013187
84.986694 32.102959 2.0751157
85.33783 32.12471 2.1212158
85.749329 32.322258 2.1861925
34.803871 32.935337 2.0751827
51.424885 32.819366 2.2090251
51.615101 32.740475 2.1677628
85.675797 32.715294 2.2027435
33.07262 33.054405 2.2268927
34.851067 33.471291 2.1168525
35.055439 33.233242 2.0798969
51.420437 33.07798 2.2281804
51.747665 33.23708 2.178405
