# .PCD v0.7 - Point Cloud Data file format
VERSION 0.7
FIELDS x y z
SIZE 4 4 4
TYPE F F F
COUNT 1 1 1
WIDTH 1585
HEIGHT 1
VIEWPOINT 0 0 0 1 0 0 0
POINTS 1585
DATA ascii
78.935204 26.681147 0.29241636
79.193909 26.732815 0.30304179
57.941418 27.209749 0.18833734
58.303162 27.314255 0.38414764
58.782806 27.31694 0.37407357
59.2724 27.265091 0.32278627
59.630604 27.464575 0.28770095
60.303432 27.157349 0.22053041
77.78862 27.001629 0.25413555
78.781891 27.35528 0.29706296
79.267555 27.440212 0.31821141
79.979897 27.477291 0.34866595
80.267181 27.450954 0.36034274
82.835236 27.188778 0.46806967
57.977562 27.516026 0.46317863
58.1861 27.727001 0.24965265
58.700817 27.843727 0.011551291
59.872631 27.594252 0.26425174
60.163067 27.57254 0.23563515
78.797226 27.525497 0.30067271
79.396111 27.612442 0.32692733
79.786346 27.520603 0.3413974
80.34977 27.606905 0.36752567
80.744537 27.748508 0.38828269
81.305534 27.769028 0.41397694
51.682602 28.431765 0.20282011
51.658829 28.698545 0.22469294
37.057365 29.36479 0.43405193
51.225037 29.310703 0.30453363
51.686001 29.125952 0.25482216
51.08173 29.684462 0.34412932
51.451611 30.238266 0.35769722
51.505447 30.267784 0.3557694
51.653931 30.701859 0.37754044
51.435432 31.427902 0.45091614
51.77998 31.218744 0.4076243
50.425049 31.983795 0.058836222
51.411808 31.62759 0.46835539
51.554302 31.820246 0.39247584
83.900925 31.950592 0.005166769
85.208351 31.686911 0.017829657
50.427315 32.03611 0.063487649
50.918423 32.422985 0.076042123
51.175152 32.157093 0.040076695
51.574673 32.045902 0.32899931
83.81385 32.295708 0.025216162
43.152935 32.966362 0.47775856
47.967278 32.868393 0.25082055
48.08247 32.720123 0.23233326
50.665848 32.786175 0.12042516
51.194805 32.769814 0.094757713
83.463226 32.8666 0.05446291
83.743034 32.714779 0.050930023
84.196808 32.750549 0.063776612
50.466167 33.12048 0.15961246
50.599449 33.01392 0.14396939
83.458038 33.186661 0.075827718
83.732849 33.2304 0.085311845
83.747757 33.58688 0.11020035
84.261642 33.816109 0.13867755
84.203285 34.246712 0.1682885
31.724794 34.849075 0.014990509
47.116528 34.675541 0.44877875
84.396713 34.537834 0.19439352
84.753441 34.789494 0.22204447
85.0215 34.71669 0.22312808
31.757843 35.246983 0.049699686
50.846985 35.190857 0.32559133
84.672691 35.220707 0.2529811
85.199753 35.427727 0.28217947
85.827049 35.451324 0.29967821
32.407501 35.609417 0.074996591
32.614616 35.728596 0.083332419
34.808704 35.921604 0.078418255
85.894135 35.522003 0.30692148
86.166634 35.771214 0.33357966
31.773716 36.088432 0.1228478
34.954372 36.269405 0.10705793
86.369652 36.067223 0.3625052
86.772049 36.202545 0.38364661
87.195091 36.387585 0.40950248
50.902302 36.958912 0.47534466
87.494759 36.785637 0.45022666
87.67083 36.700436 0.44754836
88.275063 36.860718 0.47620893
54.011169 37.010521 0.34010738
54.873253 37.299053 0.32578996
87.779396 37.058361 0.48048908
54.778709 37.635284 0.35830277
55.329773 38.427795 0.08437714
51.151237 39.364559 0.19984262
50.944363 39.664169 0.22457674
51.090202 39.812359 0.23395452
51.195732 40.229004 0.2632193
50.914528 40.964542 0.31880081
51.13752 40.735939 0.30005741
51.507267 40.982258 0.31284845
51.378906 41.167416 0.32715169
51.625565 41.216003 0.32739633
89.546921 41.211571 0.0075082183
51.476883 41.691422 0.36138219
51.553501 41.841328 0.37032363
89.374741 41.856983 0.070118546
89.779503 41.753414 0.055963557
91.263672 41.791847 0.043720841
49.632683 42.236015 0.42180032
51.102711 42.229572 0.40192932
51.674007 42.231197 0.39416042
88.23941 42.422756 0.13667297
89.157913 42.220379 0.10709965
90.388931 42.235184 0.095071793
94.178345 42.132378 0.04472971
88.249229 42.600567 0.15375312
90.215103 42.723415 0.14370209
49.376827 43.243496 0.49148908
50.236279 43.199253 0.47650599
89.27951 43.433285 0.22316915
89.829453 43.295254 0.2034041
96.888672 43.407887 0.13610196
50.180695 43.51202 0.49706209
89.252319 43.570156 0.23691058
89.616035 43.7593 0.25129688
51.322716 44.363708 0.012783813
51.531719 44.188446 0.0082739191
90.931549 44.400822 0.2992537
91.018456 44.424816 0.30059791
51.305866 44.75346 0.028407991
89.926086 44.888432 0.35986385
90.125946 44.706791 0.33925229
90.686287 44.629028 0.32479641
51.222866 45.215305 0.045406289
89.847794 45.108284 0.38293168
90.52121 45.471066 0.41123641
50.898045 45.877888 0.06651219
51.160149 45.736618 0.064053804
90.399475 45.834961 0.44966909
90.607826 45.650604 0.42833114
50.811577 46.304489 0.080763221
51.009483 46.474628 0.088541627
90.47049 46.112907 0.47711161
90.518585 46.277962 0.49338388
50.927948 46.778404 0.097956955
50.73838 47.316597 0.11395621
48.816177 48.449303 0.13592923
48.550823 48.815727 0.14575994
48.659256 49.211075 0.15896958
50.787918 49.381054 0.17300719
48.11866 49.809189 0.17385542
49.383347 49.709335 0.17744954
50.883923 49.90522 0.18609983
48.603359 50.142929 0.18628317
50.95401 50.674377 0.2037342
45.905563 51.108337 0.19947678
50.783001 51.366047 0.21892726
49.573421 51.66684 0.2273736
50.80283 51.802662 0.22776727
49.445415 52.158691 0.238572
50.869732 52.299358 0.23714356
50.852734 52.759167 0.24574392
47.740738 53.330017 0.26635903
50.709301 53.269756 0.25569904
93.276932 53.397575 0.042803168
48.216862 53.757675 0.27546561
48.510536 53.56514 0.27074218
50.612347 53.734562 0.26435515
92.200996 53.828598 0.13410866
92.722923 53.606068 0.088502496
93.191246 53.548836 0.060999453
94.235809 53.732002 0.028840572
94.675934 53.772919 0.011923641
50.397331 54.298931 0.27537394
51.091953 54.461952 0.27184641
91.43692 54.473656 0.23119292
91.700905 54.247627 0.19730681
92.051788 54.263485 0.18209282
50.196434 54.738335 0.28413153
91.372437 54.558968 0.24232462
91.584045 54.904762 0.26488799
44.718731 55.403564 0.31446865
45.000004 55.398788 0.31466043
49.940651 55.191093 0.29350817
50.03709 55.198006 0.29280186
90.644318 55.290668 0.34646741
91.269318 55.383785 0.32529342
91.624016 55.135139 0.28475904
90.355263 55.825954 0.41125754
90.700729 55.667366 0.37952518
92.120316 55.595169 0.30453455
90.143288 56.154205 0.45276347
36.164478 56.662964 0.30316737
90.223709 56.564137 0.48797947
33.098389 58.491474 0.33787024
37.493439 58.47226 0.37171638
38.165489 58.38311 0.37281454
33.982033 58.977753 0.36251223
37.697254 58.536766 0.37480068
38.194859 58.586761 0.37889373
39.334232 58.692051 0.38676012
39.627251 58.802654 0.39072701
47.597145 58.634911 0.36792624
34.228455 59.03019 0.36629248
39.752712 59.15649 0.4004288
47.033661 59.207916 0.38184726
69.30275 60.390003 0.29057923
38.636139 60.80481 0.4403578
68.909561 60.73386 0.33083314
69.927544 60.510403 0.24825931
70.206024 60.679977 0.23304994
68.945129 61.126606 0.34132838
69.036728 61.1493 0.33542764
69.82901 61.398674 0.28552532
68.825478 61.621716 0.36642373
68.63385 62.060795 0.39473212
69.535316 62.267876 0.33631158
69.767731 62.715202 0.33419639
70.799835 62.724876 0.25758958
56.758049 63.989098 0.18744361
57.155022 63.968445 0.17166847
53.338039 64.485168 0.30651867
56.258102 64.314651 0.20688295
56.749367 64.019562 0.18776846
57.393936 64.209511 0.16196084
57.577988 64.276642 0.15432191
53.321613 64.519165 0.30710101
54.394485 64.569702 0.27337146
54.716919 64.712463 0.26284128
57.69519 64.822876 0.14920843
59.388687 64.886215 0.072970033
59.99464 64.818466 0.043732762
60.358952 64.725647 0.025710544
60.559593 64.938629 0.015133977
57.725811 65.109268 0.1477741
57.795483 65.715782 0.1444391
59.754234 65.732559 0.053985476
45.372662 66.59729 0.49886119
57.844704 66.70517 0.14158762
60.630531 67.253036 0.0066945553
58.777184 67.788177 0.097811818
58.898853 68.369431 0.091186643
59.122261 68.354637 0.080442309
59.660927 68.438408 0.053813577
58.455631 68.994415 0.11129773
60.257008 68.53524 0.023391724
58.989475 69.154861 0.085608602
57.48827 69.752914 0.15480793
57.581253 69.849426 0.15053284
57.667294 70.013512 0.14646971
94.844788 70.335182 0.0032998323
93.665161 70.763641 0.12159118
94.231071 70.700195 0.075109765
94.742279 70.572548 0.027997613
93.311531 71.18795 0.17811985
93.640739 71.092125 0.14693636
57.85194 71.661362 0.13602865
92.756073 71.973038 0.27514213
93.365898 71.859634 0.22213209
92.352684 72.221283 0.32247546
92.644592 72.084282 0.29127264
93.127777 72.066422 0.25444445
92.231461 72.572823 0.35638833
92.327034 73.203491 0.39420804
92.068947 73.635193 0.44373491
91.978935 74.19072 0.48968807
48.94693 79.179832 0.48767316
49.11499 85.983871 0.49399841
78.707092 86.683525 0.47159031
79.252975 86.969177 0.43918121
79.599815 87.141983 0.41818559
79.931854 87.596298 0.40801799
83.301857 -12.139675 0.98210084
66.369522 10.323938 0.76702511
66.367546 11.446846 0.72524178
46.249004 12.621564 0.52838981
66.447235 12.525129 0.68093932
66.507011 13.654995 0.63588846
46.746719 14.220041 0.55004317
46.753883 14.626873 0.56698263
65.724876 14.950578 0.62858778
66.655922 14.87723 0.58318585
46.771885 15.201949 0.59037244
65.287582 15.350461 0.63785338
65.551147 15.338092 0.62357193
66.880936 15.275024 0.55760252
67.159203 15.247574 0.54556638
46.816479 15.716687 0.60876751
46.839798 16.323893 0.63350117
46.866199 16.717964 0.64861149
48.08371 16.628561 0.52776504
46.890816 17.027729 0.66018295
46.929237 17.892313 0.6958276
46.935112 18.038425 0.70197237
49.150696 18.381964 0.50283384
48.88942 18.58139 0.53672189
46.986961 19.349163 0.7580297
73.280464 19.35055 0.94731998
73.550308 19.428009 0.94584692
74.805016 19.054333 0.98359239
46.991463 19.597519 0.76936293
47.017548 19.867594 0.77964836
73.38974 19.63401 0.93289059
47.062187 20.429256 0.80220014
47.101753 20.977659 0.82492542
49.864738 20.973156 0.55003697
72.908157 20.973591 0.85481852
73.317619 20.827396 0.86820906
73.627853 20.734219 0.87777609
47.094803 21.247658 0.8389172
49.20702 21.316795 0.63062155
72.978546 21.427406 0.83169532
73.070206 21.071476 0.85174751
47.135288 21.765919 0.86054122
73.304222 21.928329 0.81148791
73.765289 21.677811 0.83295745
75.605644 21.921253 0.87120008
47.159313 22.206863 0.88022882
50.368885 22.225885 0.55838645
50.543106 22.112526 0.53598243
61.584148 22.101898 0.64034998
72.986885 22.019089 0.8011893
73.37606 22.241253 0.79746813
73.69606 22.299238 0.80151165
74.374619 22.256157 0.82039863
74.72744 22.253094 0.83028936
75.361351 22.025234 0.8591125
75.559868 22.089525 0.86286485
77.804459 22.412508 0.93912995
47.187069 22.710491 0.90299547
50.317783 22.706566 0.5859732
73.810883 22.638941 0.78837007
74.239235 22.787865 0.79309779
74.558243 22.766279 0.80326653
75.049248 22.554928 0.82731783
75.551979 22.866262 0.83209628
76.305962 22.601257 0.87008274
77.836365 22.634388 0.93395317
46.885925 23.347603 0.96715146
47.144737 23.149511 0.92997015
49.830818 23.257103 0.66103673
50.031738 23.07119 0.63185644
61.701046 23.327349 0.58661169
74.637695 23.152124 0.78969359
75.384377 23.157282 0.8150537
75.683769 23.358841 0.81896716
77.448105 23.328922 0.89590287
77.621056 23.227186 0.90692312
91.049156 23.085314 0.7319268
47.118805 23.755362 0.96434939
63.747646 23.732702 0.88307953
74.688911 23.569157 0.77455485
75.875496 23.612968 0.81771278
76.223869 23.660458 0.83074778
76.592506 23.656679 0.84699392
77.406219 23.742224 0.88248867
62.031643 24.273434 0.52484488
76.872055 24.455208 0.837502
77.509308 24.481083 0.8692559
76.913803 24.728117 0.83274043
77.037064 24.75799 0.83827245
78.478165 24.980736 0.91281092
49.415752 25.292042 0.80607146
50.260468 25.234707 0.71580017
60.584862 25.369192 0.61942804
76.956978 25.171274 0.82456928
77.172966 25.300358 0.83342475
77.720909 25.382036 0.86237699
78.33847 25.305977 0.89944696
78.747604 25.260498 0.92445004
49.76754 25.894724 0.80116314
60.843384 25.821762 0.57927513
61.063469 25.918217 0.55465037
63.403931 25.937265 0.7476244
63.62513 25.799698 0.74147689
77.151459 25.641045 0.82546043
77.718903 25.54567 0.85940719
78.293968 25.681257 0.89130539
78.78157 25.832008 0.91957331
79.257141 25.963964 0.9484126
85.647415 25.702808 0.55614114
86.142326 25.731188 0.57983434
49.912548 26.319901 0.80862749
59.152 26.069128 0.75220233
60.791679 26.188974 0.74830204
61.214535 26.257648 0.77888674
61.547104 26.254696 0.88863444
62.9552 26.370979 0.75138962
63.138153 26.145008 0.75305068
77.79615 26.463354 0.85091227
78.013306 26.472561 0.86434376
79.295517 26.250099 0.94886494
85.768883 26.251657 0.57775235
86.447296 26.383232 0.61418283
86.677002 26.131819 0.61720884
88.039459 26.468922 0.69501913
57.858208 26.964848 0.88948011
58.493675 26.93074 0.80987382
58.838017 26.96788 0.76696426
59.238197 26.881159 0.72140503
61.430344 26.619764 0.74831408
61.753925 26.768133 0.83287108
62.298748 26.885578 0.77213669
62.743382 26.831238 0.73637772
77.726974 26.689716 0.84420002
79.274384 26.72821 0.94500566
85.967178 26.846056 0.6060282
86.249237 26.773626 0.61738622
86.719124 26.871986 0.6437642
87.272209 26.999527 0.67575562
46.368454 27.248016 0.52485144
57.813446 27.011532 0.89440233
58.283867 27.313828 0.82833445
58.673286 27.180634 0.78239596
60.336002 27.355194 0.58443117
60.711243 27.238224 0.74665803
62.145432 27.007206 0.77805865
79.218491 27.143147 0.94005144
79.708893 27.272287 0.97448963
86.352051 27.490847 0.64751446
86.78183 27.115089 0.65542257
49.932217 27.871464 0.89198482
50.008537 27.989948 0.89054072
59.916294 27.561789 0.62531441
60.160748 27.583715 0.59722877
61.181206 27.552563 0.84079683
79.738976 27.694956 0.97777158
85.765678 27.961811 0.63541484
86.394012 27.563717 0.65230501
49.920151 28.003201 0.90076661
50.311077 28.415003 0.88236356
60.679081 28.402067 0.84616947
85.725143 28.283102 0.64566916
50.218323 28.586788 0.9022603
51.617973 28.705025 0.75892401
84.899269 28.949989 0.62958133
85.63694 28.580482 0.65285218
49.968964 29.030266 0.9552412
50.393227 29.429277 0.93287998
50.584026 29.180252 0.89741224
84.073235 29.391354 0.60469788
50.448963 29.9175 0.95627391
50.566776 29.767456 0.93429708
83.757599 29.744612 0.60294366
36.275177 30.33057 0.55587566
36.711796 30.131618 0.51832974
50.493877 30.001045 0.95645654
50.571747 30.244814 0.96289563
83.324532 30.315922 0.60483444
83.530502 30.019468 0.60272479
30.510342 30.703987 0.85006249
36.236183 30.724579 0.59265256
51.303085 30.796837 0.91670257
83.419434 30.780487 0.63129151
83.568886 30.672709 0.63430554
33.287918 31.453741 0.79051918
35.882393 31.309977 0.66051227
36.355766 31.153664 0.62525529
50.997189 31.37558 0.98719895
51.435421 31.405067 0.94043112
51.574806 31.335381 0.92054307
83.43766 31.263994 0.6557408
34.574997 31.893261 0.77101123
36.494347 31.533876 0.65259147
51.651821 31.578529 0.92753559
83.461037 31.511377 0.66952562
83.662392 31.776033 0.69467413
31.637985 32.190735 0.92964351
34.322586 32.483913 0.83419389
35.163803 32.457115 0.79389274
35.607101 32.275234 0.75793743
50.470829 32.102524 0.57989496
51.418667 32.213173 0.71958703
51.650475 32.280701 0.74045312
83.7491 32.324173 0.72960895
84.037598 32.094448 0.73307055
34.676041 32.747612 0.84131002
50.292511 32.734917 0.64423877
50.829323 32.738331 0.6019702
51.775635 32.768536 0.52943432
83.408546 32.862812 0.74132824
83.65712 32.688427 0.7452752
34.662022 33.319626 0.89182484
42.705303 33.076973 0.50774598
49.776375 33.197304 0.72227359
50.780239 33.30077 0.65083855
51.068672 33.248909 0.62376118
83.368797 33.113785 0.75403434
83.810608 33.343067 0.79379773
34.866447 33.754559 0.92042184
35.328823 33.807205 0.90418214
50.824116 33.625061 0.67343187
83.7173 33.798912 0.81751591
84.169075 33.561668 0.82854021
34.439724 34.178379 0.97636378
34.684189 34.09819 0.95842373
35.087906 34.036076 0.93487585
83.745735 34.181492 0.8445797
84.245239 34.393261 0.8885892
84.420441 34.511944 0.90724576
84.753288 34.720356 0.94184941
85.019485 34.940357 0.97359478
41.629471 35.139729 0.73604661
50.840721 35.191147 0.79993844
85.12072 35.081028 0.98999768
50.863014 36.369957 0.8964417
50.474655 36.982735 0.97935033
50.975876 36.710331 0.91612786
50.486839 37.030624 0.98244452
50.519123 37.078373 0.9839201
51.203671 37.302498 0.94821286
88.458466 37.187283 0.50860369
88.558296 37.358181 0.5258165
51.190372 37.746132 0.98729819
88.417336 37.740238 0.55552959
88.528725 37.697987 0.55458772
51.465359 38.239437 0.55769098
51.568768 38.337421 0.56116396
88.406746 38.169434 0.59321129
88.640366 38.371544 0.61715984
51.632847 38.713867 0.58945537
90.829384 38.817326 0.71227944
49.965694 39.237068 0.707708
50.414639 39.283466 0.69125038
50.693245 39.463459 0.69340879
51.028828 39.498096 0.68106949
90.877098 39.05521 0.73519301
91.230667 39.266426 0.76346362
92.121384 39.33926 0.79234719
50.221054 39.500549 0.7177757
50.870235 39.726807 0.70686239
51.060192 39.790184 0.70341891
91.785629 39.504143 0.79927981
93.451859 39.903748 0.87791896
93.647995 39.768551 0.87013602
50.985321 40.130001 0.73435217
51.191006 40.117382 0.72400182
51.729984 40.322742 0.71605265
52.094646 40.476475 0.7117846
92.431351 40.347965 0.89473498
93.637672 40.180012 0.90852118
52.181686 40.74881 0.72954154
89.396164 40.91877 0.87604785
90.44606 40.94339 0.90386391
91.934448 40.919754 0.93769598
92.166008 40.659363 0.91812193
94.109993 40.65004 0.96484363
51.837769 41.377388 0.79516351
52.066681 41.10915 0.76344234
89.444557 41.148228 0.89992696
89.573364 41.44487 0.93260825
91.962868 41.070972 0.95314205
51.771534 41.74889 0.82747716
52.007866 41.996426 0.83599496
88.890228 41.715576 0.9437325
89.617424 41.538765 0.94308603
51.470665 42.327927 0.88672572
51.691799 42.124481 0.86061311
52.337639 42.348274 0.84813434
88.817642 42.060059 0.97719592
51.48457 42.520157 0.90108359
52.411705 42.63166 0.86664468
49.679279 43.62537 0.51152486
50.273338 43.796413 0.5133478
50.180729 44.363171 0.54943639
50.345215 44.523556 0.55646127
47.153755 46.321377 0.7155751
90.546455 46.390541 0.50456923
46.931175 46.674198 0.74017704
47.081665 46.668625 0.73735368
51.678513 46.968781 0.66820145
90.757286 46.673477 0.53092772
51.157902 47.164848 0.68943042
51.681892 47.28812 0.68464738
91.109291 47.172546 0.57785153
47.121986 47.609947 0.7912879
51.457706 47.769135 0.71421945
51.704353 47.750443 0.70774746
91.710815 47.727596 0.62744617
45.35667 48.297722 0.8617239
49.386425 48.251709 0.78348821
51.136406 48.443283 0.75553703
51.517494 48.220215 0.73562741
44.929714 48.828342 0.89971882
49.183632 48.566525 0.80432898
51.08778 48.7649 0.7727263
44.895123 49.22081 0.92270482
45.946606 49.325745 0.90925896
50.713886 49.31229 0.80860186
51.13765 49.258812 0.79588616
95.68277 49.460052 0.75436604
50.750084 49.934998 0.83818036
95.698792 49.78347 0.78798306
50.80246 50.022335 0.84111309
95.329346 50.069363 0.82312918
95.522423 50.02269 0.81552362
96.413017 50.779945 0.88290966
96.555054 50.843838 0.88766968
49.886372 51.100445 0.91564876
50.05011 51.233917 0.9179101
96.398102 51.045071 0.91119385
96.583252 51.259438 0.93129981
90.158073 56.862335 0.51965219
90.142685 57.216599 0.55428457
90.298882 57.774208 0.60009289
90.275719 58.347683 0.65625155
90.381302 58.894569 0.70364475
70.224281 59.393555 0.99982727
70.68631 59.394707 0.96888226
90.448563 59.257927 0.73531353
70.425858 59.517254 0.99471772
90.870544 59.926918 0.7790187
90.641556 60.047142 0.80188322
44.488297 66.499863 0.51061094
44.82827 66.321289 0.50374258
44.90588 66.762962 0.50773686
39.286739 69.679977 0.61342227
44.415413 69.700928 0.54682791
45.358971 69.950523 0.53220689
39.264961 70.425201 0.62477505
45.402977 70.099976 0.53268182
39.339287 70.684608 0.6277833
39.370106 71.247368 0.63542956
39.386597 71.852974 0.64357793
39.421738 72.33342 0.64957476
39.459087 72.820076 0.65543461
39.46743 73.318222 0.66162765
39.485836 73.700424 0.66611207
41.122643 74.400192 0.64955676
41.93335 74.382492 0.63561475
43.580315 74.218369 0.6032654
91.884308 74.468857 0.51628643
44.08049 74.836273 0.59783828
43.135506 75.635284 0.62376058
44.047829 75.524628 0.60363901
45.670074 75.9646 0.56874001
39.509293 76.245621 0.69495857
41.066956 76.128639 0.66763461
43.233753 76.207787 0.6261521
45.877251 76.221359 0.56497645
46.131439 76.396843 0.55943882
43.847343 76.574257 0.61554396
44.015846 76.584274 0.6118263
46.236923 76.528656 0.55737889
44.497059 77.004837 0.60344946
44.636139 77.073158 0.60056078
45.466728 77.089333 0.58018887
47.688274 77.322083 0.52075088
45.811108 78.209892 0.57704586
46.034195 78.475121 0.57230675
48.369415 78.486801 0.50417316
47.763226 80.549843 0.52931631
47.956532 81.00647 0.52445972
48.042511 81.174515 0.52213848
97.583481 82.837326 0.69316775
97.467178 83.350235 0.73787683
97.545944 83.121254 0.71597016
48.674244 83.944748 0.50684917
96.901047 83.750244 0.80720997
97.445267 83.660645 0.76138932
96.409012 84.259079 0.87869787
96.751343 84.230896 0.85193443
48.656246 84.5242 0.5084461
96.386383 84.901505 0.92553341
48.614555 85.217331 0.51101005
48.499561 86.155159 0.51649415
77.748924 86.926353 0.55340505
78.165657 86.716339 0.51437891
77.525139 87.098129 0.57628787
78.982521 99.463623 0.88512075
79.237183 99.616959 0.87128294
86.357239 -27.07774 1.3713249
86.633324 -27.155537 1.3675655
86.313843 -23.533386 1.2637166
86.472343 -23.317741 1.2539867
86.719765 -23.375401 1.250789
86.429092 -20.78339 1.1792382
86.473839 -19.693687 1.1464213
86.471222 -19.114445 1.1295928
86.509476 -18.647274 1.1154002
86.723221 -18.345448 1.1031648
87.050461 -18.324005 1.0972847
89.872467 -18.020317 1.051659
89.892822 -17.569248 1.039668
73.54924 -14.082588 1.33086
80.352371 -14.232491 1.1112255
81.646667 -14.018986 1.0729989
75.724152 -13.106236 1.2141551
76.236511 -13.333603 1.2042595
76.503952 -13.333111 1.1951903
83.150696 -13.267597 1.0183219
75.232346 -12.536533 1.2118844
74.867355 -11.691456 1.1956609
74.390472 -11.10656 1.1927661
74.629524 -11.407368 1.1944464
79.723564 -11.071236 1.0262917
73.809021 -10.850201 1.2057637
79.125305 -10.916439 1.0366172
71.075592 -10.115034 1.2933775
73.185219 -10.254199 1.2090703
73.524078 -10.278824 1.1965922
71.371399 -9.8388958 1.2701577
71.794441 -9.9002848 1.2539555
72.170113 -9.712904 1.2311991
63.43013 -3.890213 1.477789
63.579174 -3.4094086 1.4499897
63.24308 -2.83218 1.4501482
47.291035 11.757098 1.4637079
47.195965 12.075828 1.4783056
75.402168 14.179538 1.2537618
75.595718 14.263969 1.2504112
48.701855 14.538454 1.3403925
47.896942 15.34199 1.4434824
48.341129 15.001398 1.3875135
49.040558 15.826195 1.3191971
47.869057 16.514971 1.4652435
49.373482 17.019279 1.2980381
49.769661 17.971684 1.2665132
49.468746 18.124702 1.3039147
49.749985 18.082527 1.2704936
50.818569 20.838104 1.1903844
51.045372 20.678225 1.1607115
49.245289 21.244238 1.3888903
49.948013 21.354694 1.3049369
50.02351 21.328709 1.2952093
72.897446 21.39035 1.4605346
73.265877 21.364882 1.4746861
73.519562 21.480787 1.4740504
49.866791 21.692791 1.3218917
73.176086 21.524193 1.4585192
74.313957 21.85881 1.4767265
74.615242 21.861418 1.4901019
49.725983 22.215481 1.3507053
73.224892 22.320818 1.396017
74.242287 22.080404 1.4567844
75.352386 22.454681 1.4852102
49.130997 22.836288 1.440239
49.603378 22.654163 1.3761572
59.692226 22.531242 1.3348809
63.444317 22.622276 1.4944996
63.666996 22.638044 1.4766812
74.095375 22.83429 1.394132
75.165268 22.848701 1.4482373
73.938156 23.305742 1.352273
74.224533 23.256023 1.3701441
74.641342 23.26755 1.3912838
75.080307 23.105644 1.426244
76.03096 23.015718 1.4881493
46.288685 23.77219 1.0521216
46.627167 23.616253 1.0083034
74.940903 23.572809 1.3873841
75.226852 23.7176 1.3950427
46.266991 24.251411 1.0803572
46.291588 24.728519 1.1039641
50.217209 24.868769 1.3547723
50.618462 24.799776 1.3012348
46.322083 25.251606 1.129885
49.212246 25.044607 1.4910318
50.379898 25.256653 1.3445901
50.731045 25.470949 1.3050905
60.459835 25.425947 1.0601722
60.542824 25.409239 1.0519954
77.290092 25.11553 1.4649774
77.611801 25.044083 1.4940693
46.351822 25.832897 1.1596161
49.810127 25.926868 1.4395475
50.48856 25.512552 1.3377947
58.86903 25.638163 1.2408141
61.978443 25.743589 1.2891923
62.117031 25.950493 1.2535882
85.603828 25.624903 1.4013172
86.121155 25.877922 1.4445912
49.854355 26.040257 1.4372975
51.038914 26.359062 1.2908016
59.244953 26.474266 1.1432871
61.615005 26.080906 1.2924769
62.461617 26.151722 1.1988766
62.767509 26.333801 1.1515651
63.23661 26.279703 1.1424735
63.548645 26.345545 1.0854466
85.395859 26.430771 1.3955897
50.290596 26.639584 1.3987064
59.223503 26.776768 1.1288469
59.659714 26.817928 1.2703254
61.40836 26.79866 1.242416
61.779449 26.779837 1.2029622
62.302563 26.754889 1.1846712
62.811138 26.891354 1.3993775
63.050476 26.772146 1.4477582
80.362869 26.584625 1.0202751
83.558205 26.843491 1.2578963
84.660858 26.930477 1.3451995
85.8442 26.571508 1.4333256
86.296906 26.726553 1.4723966
86.552818 26.888744 1.4962124
58.473907 27.179064 1.2107968
58.81308 27.230118 1.1600742
59.144482 27.096195 1.1712214
59.823357 27.188419 1.0266563
62.573643 27.027256 1.4575138
86.438187 27.033176 1.4898399
50.099121 27.978386 1.4720228
60.320309 27.978399 1.2671107
61.272392 27.686176 1.19258
61.515022 27.626423 1.1464666
80.261467 27.755421 1.0164592
80.729378 27.858231 1.0522952
85.425156 27.703749 1.4213058
85.609138 27.886059 1.4406275
49.000023 28.4156 1.0240023
50.361404 28.34832 1.4502821
50.525517 28.452 1.4316987
60.398552 28.036999 1.2506975
60.806732 28.345175 1.1658171
61.084812 28.17244 1.1455177
85.861809 28.083204 1.4664086
86.020309 28.196184 1.4825627
41.66592 28.721779 1.0086097
50.257267 28.635 1.4759731
50.39854 29.168953 1.4783049
50.617413 29.312634 1.4538801
50.704479 29.782173 1.461888
50.730984 30.240227 1.4788108
83.700806 30.402857 1.3513259
50.381889 30.624832 1.0075238
50.776234 30.668041 1.4924711
83.790665 30.77129 1.3725595
50.728073 31.396366 1.0184865
83.825104 31.262934 1.3949211
84.019539 31.072319 1.4044042
50.711548 31.679636 1.0388606
83.794365 31.757458 1.4134104
51.455269 32.397728 1.0033455
83.815941 32.111942 1.4315691
84.429413 32.140568 1.4886893
47.304329 32.609928 1.4875463
49.719692 32.947273 1.2372994
51.384113 32.785198 1.0377346
51.815453 32.980095 1.4645973
49.721527 33.108543 1.2485883
51.087452 33.136341 1.0956264
51.708363 33.062145 1.4851488
31.760103 34.220539 1.1005362
31.796173 34.764454 1.1458163
47.311935 34.82531 1.0517299
31.862511 35.274712 1.1866813
35.847778 35.494137 1.0264342
50.868851 35.179554 1.272102
85.765144 35.316612 1.0462064
86.747086 35.469494 1.1167078
31.847771 35.778801 1.230526
34.608719 35.834442 1.1112608
36.058826 35.991375 1.0595393
86.061203 35.822922 1.1030507
86.728104 35.54908 1.1217095
36.115585 36.335846 1.0863996
50.723209 36.408615 1.3878732
86.203896 36.079849 1.1320049
87.463608 36.265915 1.2228936
87.805878 36.45565 1.2590399
35.973633 36.774639 1.1301383
37.47728 36.648972 1.0519195
50.714035 36.761787 1.4185101
87.635193 36.666443 1.2662787
88.153725 36.861404 1.3139144
90.377762 36.931244 1.4539233
50.780491 37.251007 1.4525683
88.353172 37.022835 1.3396696
88.622147 37.107155 1.3631108
50.81319 37.721149 1.3337321
89.128159 37.841942 1.4580991
51.334526 38.261734 1.0202785
51.501522 38.22472 1.0036964
89.277901 38.102768 1.4906198
50.484516 38.997982 1.1523702
51.314293 38.674377 1.0577804
50.254803 39.153946 1.1843874
49.988457 39.654522 1.249681
50.036285 39.704121 1.2502402
50.711182 39.862438 1.2104262
50.054321 40.466393 1.3164389
50.868248 40.097176 1.2187564
51.551582 40.314964 1.1838017
52.154327 40.359146 1.1398578
49.963779 40.646912 1.3397571
50.002472 40.55793 1.3287317
51.452568 40.965168 1.2500733
51.683205 40.942127 1.2297068
52.258476 40.603134 1.1535141
96.240097 40.682369 1.0203012
51.757576 41.228107 1.2497075
52.115978 41.210121 1.2196903
51.837151 41.663475 1.2829791
52.472099 41.658558 1.2324219
52.65126 41.793781 1.230696
92.008026 41.768784 1.0232416
50.946358 42.156879 1.3983282
52.658649 42.105621 1.2587715
89.76796 42.480461 1.042734
90.036415 42.448799 1.0457089
89.283768 42.745338 1.0591569
89.732941 42.56554 1.0507437
51.053398 43.280315 1.493241
89.356445 43.038635 1.0916492
50.289818 43.674843 1.046182
90.217995 43.684452 1.1798282
92.683647 43.931808 1.2617916
89.558289 44.293709 1.2311753
91.069885 44.382656 1.2739933
92.293137 44.296982 1.2919549
92.694046 44.038925 1.2733916
90.895103 44.876904 1.3241911
91.196854 44.565754 1.2966813
47.422844 45.367767 1.3106128
48.764774 45.419659 1.2516795
90.761505 45.03801 1.3390886
91.753235 45.441055 1.4049481
93.326736 45.268745 1.4199631
47.444008 45.538925 1.3227965
47.507507 45.583908 1.3232807
91.294807 45.817417 1.4373255
91.640587 45.69342 1.430697
46.609505 46.276672 1.4185433
47.4814 46.26495 1.3766654
47.529652 46.314522 1.3781753
53.253571 46.412483 1.1108621
91.360756 46.150074 1.4762319
47.282383 46.646477 1.4151404
47.799004 46.736732 1.3975689
49.007008 46.792694 1.3444102
50.26265 46.615711 1.271046
50.815414 46.861923 1.2628129
51.153465 46.933475 1.2517776
51.560211 46.943127 1.232742
53.200912 46.969421 1.154254
48.952991 47.20459 1.3779726
49.983292 47.171139 1.3260075
50.223969 47.182087 1.315217
50.94976 47.27013 1.2866312
51.481659 47.292984 1.2624301
51.52858 47.328583 1.2627668
53.304455 47.082817 1.1574064
47.400169 47.573051 1.4798211
47.521759 47.82909 1.493332
50.765881 47.792812 1.3342507
51.38039 47.634567 1.2925652
51.722797 47.792156 1.2873404
49.778301 48.094513 1.4046155
51.661469 48.240768 1.3232467
51.303326 49.352074 1.4220449
40.723751 49.930195 1.0353358
50.772388 49.799915 1.4810268
51.251167 49.708836 1.4505582
40.700821 50.049614 1.0428028
51.224171 50.188122 1.4866341
51.521286 50.476833 1.4925556
40.336452 50.579422 1.0801342
51.523548 50.569099 1.4990906
46.137245 51.218815 1.0073521
43.218922 52.350605 1.1272321
39.627731 53.39402 1.2536149
93.290497 53.38559 1.212926
94.271225 53.466457 1.2056719
39.580318 53.98904 1.2874166
48.309898 53.656277 1.0768864
48.594463 53.700573 1.0714576
49.00016 53.968494 1.0729014
93.140884 53.763374 1.2574656
94.084396 53.560024 1.2190797
96.076439 53.953468 1.2300184
39.659626 54.124107 1.2932985
48.319878 54.473663 1.1145104
48.610073 54.035446 1.0865374
90.830887 54.392952 1.3692936
91.2472 54.333668 1.3549147
91.640808 54.190151 1.3315395
92.228676 54.156586 1.317293
92.79277 54.167389 1.3086133
93.045235 54.108315 1.2976128
96.099915 54.25058 1.2623041
32.808594 54.996704 1.4657694
39.256729 54.787834 1.3373032
48.277351 54.771484 1.1292983
90.332207 54.663414 1.4095414
90.701126 54.505672 1.3845502
32.814472 55.280293 1.4822534
47.998413 55.456131 1.1681232
48.199051 55.100471 1.1464409
90.269638 55.010956 1.450622
90.692207 55.438335 1.4916627
32.846146 55.56028 1.4980129
35.703609 55.656807 1.4527235
45.713219 55.846043 1.2469594
107.36266 56.267403 1.3087741
107.36263 56.716434 1.35669
107.40228 57.176598 1.4053879
107.64876 57.659668 1.4536341
69.278351 59.217995 1.0509686
68.920624 59.817169 1.1152076
69.176552 59.671593 1.0884368
70.213631 59.81144 1.028919
68.797493 60.00676 1.1361549
69.757195 60.322903 1.094054
70.113968 60.251163 1.0654272
68.360924 60.818817 1.2197213
68.557198 60.965805 1.2168039
68.939484 61.366497 1.2187986
69.427841 61.000931 1.1618459
69.520035 61.021915 1.1571661
68.235313 61.576305 1.2791094
68.809235 61.608204 1.2437032
70.26046 61.909954 1.1681969
70.971733 61.824051 1.1148505
71.162674 61.676491 1.0920067
70.22123 62.128677 1.1856391
99.162415 67.892517 1.1389463
99.151176 68.328011 1.1815742
99.185226 68.793427 1.2248957
99.214722 69.272232 1.2697784
99.231827 69.740379 1.3142862
99.262856 70.205063 1.3578042
99.299179 70.70443 1.4044631
99.331619 71.207268 1.4516943
99.359383 71.592339 1.4877441
65.36338 87.456161 1.4376639
65.801575 87.38089 1.4072644
66.236809 87.442162 1.3812748
64.942863 87.80719 1.475638
65.115822 87.596786 1.4579133
66.605789 87.714798 1.3662149
64.769394 88.100952 1.4960517
66.897034 88.129166 1.3606776
97.390175 88.29509 1.0915029
67.813187 91.448486 1.4080302
68.006966 91.499771 1.3969094
67.641388 91.739708 1.4287542
68.307266 91.628777 1.381207
68.705383 91.822769 1.3610177
67.482887 92.12561 1.4516362
69.112198 92.131744 1.343837
97.429504 92.904976 1.4112455
96.648697 93.359596 1.4986283
97.25116 93.047203 1.4339025
71.740044 93.780479 1.2183253
72.242249 93.729309 1.1817274
72.740135 93.669983 1.1449169
71.931648 98.435242 1.3572539
65.073647 -18.911877 1.9412602
64.751579 -15.885157 1.8468167
65.280319 -10.88868 1.6262773
65.444046 -10.487221 1.6013621
62.934059 -6.3199692 1.601977
78.055351 9.5857735 1.5319666
45.665375 11.749049 1.6476717
46.429947 11.898677 1.5624788
46.642578 11.830995 1.537488
45.576511 12.074884 1.6626606
46.232628 12.253609 1.589869
46.851234 14.443521 1.551016
46.833164 14.736801 1.557766
46.858086 15.089048 1.5605268
46.922104 16.215654 1.5721407
46.93367 16.756563 1.580537
46.956173 17.248953 1.5870517
46.96637 17.664301 1.5938703
47.007256 18.31245 1.6019446
47.029251 18.84605 1.6104712
47.061485 19.303751 1.6164705
73.573006 19.401007 1.6483082
47.080673 19.811937 1.6255851
73.609573 19.617874 1.6309246
47.107105 20.268042 1.63298
61.667747 20.081612 1.9153579
74.71714 20.343309 1.6100193
47.132626 20.672426 1.639546
73.093658 20.844465 1.5122496
47.157932 21.305634 1.6522917
50.843758 21.168976 1.9258871
51.119881 21.173321 1.8865794
74.434708 21.089975 1.5405111
74.530136 21.186317 1.5371014
47.188961 21.813816 1.6616884
50.384579 21.888008 1.9873186
50.8498 21.719624 1.9206725
61.97263 21.762691 1.7090361
47.204281 22.177588 1.6696209
76.806328 22.36792 1.5765705
47.246471 22.854385 1.6833185
50.452106 22.816269 1.9736018
50.514771 22.641071 1.9648192
61.834869 22.549942 1.6386678
76.862953 22.785269 1.5551935
77.098686 22.868958 1.5659268
46.952454 23.301826 1.7352384
47.239716 23.130322 1.6923001
77.23941 23.216053 1.5562482
77.751991 23.375031 1.584452
78.193123 23.294785 1.6211962
79.540947 23.41848 1.7213227
46.274971 23.78405 1.8405945
46.578655 23.626579 1.7949299
47.07494 23.672379 1.7305657
78.349678 23.757992 1.6108375
78.573456 23.547697 1.6380955
79.37114 23.978882 1.6839647
79.849426 23.887146 1.7280289
46.321957 24.244684 1.849894
63.198063 24.252914 1.7942766
77.616089 24.138878 1.5358999
78.404343 24.158516 1.5969166
78.608772 24.461386 1.6006507
79.43438 24.05608 1.6861848
46.345394 24.765583 1.8649876
61.18441 24.865814 1.9127083
63.424259 24.585278 1.7283661
63.68206 24.627743 1.7026551
78.153076 24.736012 1.5515171
79.378128 24.74329 1.655376
46.367046 25.20517 1.8780326
48.294685 25.105764 1.614547
50.470665 25.254593 1.9739259
50.601337 25.241299 1.9533589
51.061272 25.449148 1.8824701
58.960251 25.150719 1.7198242
59.061253 25.270126 1.6944888
60.77063 25.358349 1.8978175
61.196957 25.177979 1.8685342
63.313816 25.090027 1.6650246
78.250259 25.354076 1.5349915
79.362015 25.228239 1.6372491
79.750038 25.281296 1.6707224
51.038635 25.50605 1.8862647
57.956116 25.815073 1.8135132
58.094189 25.69759 1.8015627
59.124634 25.930204 1.6253147
60.791557 25.643234 1.8569109
61.31855 25.819862 1.7661476
63.1875 25.759666 1.8053602
79.490005 25.762403 1.6322683
50.999531 26.100092 1.8960108
51.528149 26.463638 1.8149337
59.269749 26.128479 1.586364
61.125381 26.362989 1.7168882
62.798786 26.293316 1.9295493
63.089104 26.052221 1.9441524
78.960938 26.304623 1.5674615
79.242821 26.411448 1.5912824
79.858231 26.258381 1.654061
80.20401 26.181753 1.6893955
50.967682 26.786243 1.9072417
51.239815 26.670719 1.8625396
58.810406 26.558846 1.6167797
59.233612 26.613607 1.5481099
61.382927 26.650667 1.6928852
61.839775 26.725739 1.7695668
62.197994 26.624083 1.6634647
79.396576 26.877579 1.5950327
82.82457 26.690025 1.9493626
86.783775 26.50062 1.5073446
51.033157 27.090473 1.900062
59.224495 27.028648 1.5128011
59.520298 27.256691 1.8385367
60.94989 27.462929 1.9609257
61.206108 27.388321 1.569086
61.58271 27.08633 1.9334829
79.364052 27.234642 1.5846431
79.706093 27.422548 1.6156987
86.58532 27.059711 1.5024065
49.744339 27.536064 1.5038692
59.840778 27.596415 1.7448587
60.411896 27.9182 1.9736824
60.838013 27.787413 1.65734
61.187988 27.819273 1.514424
79.83271 27.714411 1.6245118
80.316071 27.753681 1.6744444
60.445351 28.488705 1.5381365
60.72224 28.128511 1.7608246
86.400993 28.219933 1.5152217
86.691994 28.369467 1.5440289
50.809544 28.75753 1.9644866
51.076328 28.880301 1.9221326
60.451797 28.505125 1.5350564
60.600285 28.512125 1.5109167
85.997971 28.893749 1.5004007
86.222969 28.93972 1.5210781
86.834351 28.672686 1.5652846
87.463234 28.710407 1.620432
87.820724 28.765875 1.6531433
88.417267 28.734802 1.7038406
50.821186 29.25856 1.9739485
51.024754 29.075577 1.9350734
86.769295 29.046482 1.571515
32.821835 29.68944 1.7878901
33.074883 29.674358 1.766518
36.461967 30.168861 1.5369433
33.448254 30.64996 1.8159885
35.881451 30.794449 1.6338403
50.425682 30.875275 1.5527207
50.566292 30.770119 1.5273829
33.632401 31.125408 1.8400792
35.080532 31.099821 1.7225126
35.746815 31.262568 1.6826653
50.397442 31.147163 1.5705299
50.703598 31.469172 1.5430161
36.153259 31.71908 1.6875044
36.63002 31.908817 1.6649832
50.719662 31.774265 1.5569267
33.61808 32.21492 1.9305333
36.749485 32.176373 1.6773587
50.662453 32.125397 1.5844347
51.228699 32.392418 1.8103874
84.489647 32.421391 1.5081409
84.635918 32.287098 1.5148396
35.031654 32.754742 1.8620801
36.43047 32.757263 1.7505426
36.764366 32.514778 1.7039336
46.980507 32.716938 1.5321255
47.06039 32.64167 1.5175861
49.001495 32.944691 1.8773528
51.380222 32.678715 1.7175996
51.545349 32.868164 1.9742484
84.198357 32.996437 1.5116156
84.729477 32.680351 1.5436331
34.672272 33.424625 1.9461845
35.412292 33.418365 1.8865031
50.198009 33.371159 1.7270988
50.745975 33.315784 1.6424724
51.417786 33.236126 1.5384369
51.632568 33.231358 1.740563
52.00795 33.439312 1.9186805
83.973557 33.254391 1.5050915
84.158768 33.260822 1.5226947
35.593735 33.84214 1.9071473
36.110798 33.699825 1.8539848
50.325153 33.507835 1.7169714
50.91386 33.90036 1.655035
51.054134 33.850822 1.6309205
51.938477 33.923145 1.9574848
52.256573 33.759796 1.8903358
84.321701 33.721867 1.564796
84.56398 33.998154 1.6043426
35.328888 34.268684 1.9638239
35.533821 34.035828 1.928038
50.850574 34.223938 1.6861414
51.207809 34.340729 1.6406994
51.523235 34.367397 1.5953879
84.766602 34.261036 1.6402061
47.432617 34.907383 1.6458946
50.467659 34.960457 1.7951243
50.855762 34.707737 1.718833
51.010712 34.78244 1.7008594
84.925751 34.70948 1.6850804
85.34108 34.810425 1.7313317
39.677567 35.236176 1.6966608
41.719559 35.150791 1.5261043
50.178192 35.327621 1.8659431
50.882683 35.248207 1.7539704
85.312302 35.072929 1.7470025
85.703827 35.291851 1.8000647
49.962425 35.636974 1.9219469
50.0919 35.81245 1.9161516
85.745934 35.58255 1.8256291
87.221497 35.684975 1.9739472
49.940056 36.430561 1.9886659
50.483795 36.333317 1.8985876
50.194904 36.726913 1.9748281
50.57666 36.910397 1.9326695
50.708641 37.240688 1.9412979
90.877319 37.438805 1.5278153
91.026138 37.258041 1.5210618
50.387939 37.729221 1.5395523
50.662205 37.756123 1.7243003
91.093643 37.584145 1.5536011
92.108818 37.701424 1.6251298
50.328365 38.222851 1.5903703
50.651154 38.10627 1.5426755
51.028946 38.213833 1.508786
51.669834 38.257778 1.8886818
89.433807 38.24052 1.5125498
89.783783 38.345921 1.5432597
90.974274 38.499752 1.6289967
49.940617 38.612518 1.6703107
50.103416 38.818623 1.6704818
51.569847 38.555862 1.9321569
90.82177 38.819084 1.6495852
95.877731 38.877819 1.9586457
49.488731 39.475632 1.8022454
49.564632 39.355106 1.7822176
50.165314 39.034805 1.6833391
90.60051 39.214722 1.6738405
49.417023 39.699455 1.8316237
49.520226 39.600174 1.8103783
50.053349 39.823608 1.7705536
90.822067 39.505161 1.7150494
92.285744 39.93515 1.8444204
92.187164 40.186024 1.8633837
93.362411 40.250317 1.9396931
51.341747 40.727009 1.7120574
51.584866 40.993587 1.7113386
91.850395 40.808502 1.9061916
93.194809 40.536694 1.9583038
50.839478 41.127518 1.8091701
51.391521 41.103718 1.7443467
51.642509 41.169865 1.7227461
52.251755 41.295238 1.6670201
89.393738 41.184753 1.8005787
89.732666 41.422447 1.845662
92.302147 41.216019 1.9748625
51.90966 41.832489 1.7611701
52.291725 41.651405 1.6995173
89.774109 41.922806 1.9019777
90.400902 41.854958 1.9310735
51.625229 42.123856 1.8235201
52.209743 42.081818 1.7539464
52.810486 42.207195 1.7006167
53.08601 42.438423 1.6951114
89.268921 42.41534 1.9270778
89.751587 42.014763 1.9107023
90.44223 42.338055 1.9861766
52.973549 42.915749 1.7595763
53.32428 42.585102 1.6848977
89.367592 42.758202 1.9712979
50.704796 43.215164 1.5145605
52.955292 43.329876 1.8073519
89.33062 43.025036 1.9994994
50.711315 43.59053 1.5487796
51.286266 43.899727 1.53259
51.333649 44.228939 1.5596586
51.597477 44.314312 1.5471303
48.118515 44.916798 1.8747978
51.258682 44.754612 1.6148014
51.827591 44.680607 1.5637203
53.850994 44.799068 1.8793645
47.811573 45.377674 1.9416237
48.593525 45.375187 1.8803209
47.32283 45.524426 1.9934753
53.895775 45.803673 1.9935809
53.589169 46.433502 1.59612
91.393379 46.419975 1.5075688
48.929714 46.848 1.9925474
49.260864 46.794403 1.9619025
53.360775 46.568005 1.6264073
91.3312 46.698315 1.5381832
49.340851 47.104473 1.9851042
49.571774 47.209908 1.9773363
45.213295 47.690926 1.5923431
47.224373 47.853748 1.5093727
50.161453 47.73856 1.9825208
50.302483 48.018654 1.9985625
50.593586 48.182472 1.9921087
45.142555 48.896317 1.6871752
45.96788 48.560455 1.622538
46.166897 48.838421 1.6339861
51.772236 48.647549 1.9477535
52.020073 48.689613 1.933165
96.459167 48.734581 1.8748733
44.688164 49.039711 1.719614
51.932667 49.108257 1.9804475
96.643532 49.184845 1.9306227
96.833603 49.575817 1.9798721
51.259201 50.658348 1.5188402
51.567425 50.809528 1.5141777
50.252571 52.458668 1.6992738
90.483223 55.963882 1.5564995
90.651619 55.745579 1.5279164
32.833748 56.005497 1.5239599
90.452049 56.219944 1.5868553
90.433556 56.8386 1.6593432
90.536079 56.634007 1.6333562
90.397453 57.098366 1.6904964
90.553833 57.440323 1.727338
31.907656 57.89698 1.6481136
90.979889 57.919334 1.7746505
31.947681 58.271935 1.6683978
90.935722 58.109818 1.7980039
31.976154 58.895386 1.7025036
90.77182 58.654457 1.8658555
91.117393 58.629116 1.8553748
106.18559 58.761688 1.5956755
106.66196 58.729061 1.584614
107.22297 58.738529 1.5768918
108.43465 58.694588 1.5534526
108.75822 58.661713 1.5449704
109.03526 58.604317 1.5345769
31.973606 59.061634 1.7117265
91.913445 59.905022 1.9891235
92.089043 59.887596 1.9831995
32.113602 60.978165 1.8128711
94.443428 70.469284 1.6256741
93.29985 70.94043 1.7301402
93.721069 70.832375 1.6980314
94.170464 70.633736 1.6556622
94.677803 70.505676 1.6173502
95.304695 70.716805 1.6062659
95.652512 70.626373 1.5798286
96.053864 70.584763 1.5555031
97.40004 70.925629 1.5210125
92.861176 71.384079 1.7962348
93.07814 71.159157 1.7629848
96.326103 71.107765 1.5928684
96.678909 71.005997 1.5651337
97.496506 71.380272 1.5605031
92.683159 71.638893 1.8304665
97.420944 71.541367 1.5800246
99.355232 71.829132 1.510987
92.703758 72.29007 1.8935952
99.197174 72.279449 1.5627478
92.497223 72.790474 1.9536194
92.571976 72.62999 1.9339184
92.57476 73.145676 1.9846901
64.594063 88.418091 1.5173038
94.291222 93.239311 1.6575567
96.452492 93.47155 1.5203918
93.735443 93.622864 1.723419
95.342812 93.773682 1.6202179
95.629745 93.59552 1.5874797
96.403793 93.843704 1.5497684
93.355011 94.802292 1.8319216
92.172623 95.720383 1.9783401
65.307861 -21.570862 2.0273185
64.496819 -19.684044 2.0058498
78.814903 -6.1105232 2.4855037
76.608139 -5.8074799 2.4999833
77.295349 -5.9504128 2.4971371
77.682251 -5.6304641 2.4699295
78.316994 -5.6070328 2.4593177
77.911476 -5.3357773 2.4472818
78.279373 -5.4804096 2.4516563
79.260254 -5.0222893 2.4110246
80.314095 -5.2188773 2.4149034
80.745209 -5.2528934 2.414443
77.495987 10.946522 2.4789314
47.741798 11.484692 2.4815693
76.818527 11.3213 2.4302838
77.591339 11.091492 2.4687824
76.948448 11.589809 2.4096618
77.016197 11.672785 2.4040322
76.634323 13.346539 2.2495878
47.373901 14.819414 2.4796195
47.743607 14.833508 2.4287975
47.438419 15.21596 2.4658778
49.80368 15.284249 2.1457837
47.450851 15.538208 2.4603553
47.978668 15.923178 2.3826175
49.558868 15.796695 2.1697249
49.483681 16.001099 2.1765828
48.171646 16.761728 2.3461757
49.168312 16.606861 2.2104659
48.74527 17.756155 2.2552342
49.936085 17.928745 2.0879774
50.023193 17.907667 2.076334
47.046852 18.232273 2.4952319
48.719429 18.25264 2.253989
47.059307 18.691916 2.4912441
75.267624 19.124899 2.4705563
47.111664 19.605068 2.4805417
76.024834 19.672234 2.4588637
47.158051 20.299183 2.4726725
74.17498 20.357281 2.2743053
77.080681 20.299669 2.4715061
47.172958 20.769991 2.4704797
73.929489 20.548088 2.2397943
74.135796 20.894741 2.2129083
75.628944 20.741705 2.322691
76.920364 20.962849 2.3962312
77.211578 20.939062 2.42186
77.778534 20.866743 2.4751501
47.213749 21.361931 2.4651294
74.782814 21.208874 2.2183836
75.603699 21.009071 2.2937684
76.141396 21.189688 2.3147178
77.193726 21.183275 2.3978682
77.565666 21.396652 2.4099398
47.226559 21.780197 2.4644277
47.537361 21.925886 2.4166946
74.861908 21.613962 2.1815615
75.425018 21.648594 2.2171795
75.605286 21.569046 2.2380691
77.57576 21.648191 2.3888192
78.46479 22.277124 2.4182687
47.268353 22.709455 2.4624522
48.891262 22.712076 2.2098968
50.12418 22.831158 2.0226407
61.314453 22.583746 2.2127514
76.866043 22.905825 2.2180634
77.172119 22.747381 2.2592285
77.86496 22.706093 2.3268919
78.394585 22.553419 2.3898673
79.445442 22.501808 2.4989791
47.287354 23.265743 2.4634831
50.25396 23.107662 2.0027165
76.799683 23.081209 2.1972904
77.363884 23.044214 2.2523944
78.665428 23.150532 2.3720713
47.30217 23.519899 2.4633045
77.678436 23.517775 2.2455063
50.226028 24.447456 2.00842
77.236855 24.267494 2.1450863
77.66835 24.285236 2.1879084
78.103271 24.193424 2.2396877
60.605042 24.9723 2.4271832
61.941738 24.687614 2.3044043
62.031204 24.700188 2.2920747
77.861015 24.753 2.1758151
78.260719 24.862793 2.2121301
49.20005 25.122925 2.1744785
60.907761 25.491055 2.2969453
62.319523 25.15073 2.1811485
63.384007 25.148092 2.0795453
78.364662 25.187275 2.2035098
51.180649 25.825075 2.4796481
60.747971 25.73035 2.2796202
61.91605 25.641651 2.1408145
62.267601 25.785162 2.0754459
78.326759 25.585369 2.1755071
78.657021 25.598129 2.2130709
79.225716 25.790894 2.2704384
50.093357 26.378304 2.0438921
57.975254 26.116285 2.239059
58.228985 26.183926 2.1861422
58.757313 26.330658 2.0773704
59.101917 26.471409 2.0024824
61.555817 26.323154 2.067636
77.882294 26.402023 2.0777462
78.906906 26.349136 2.2037711
79.093887 26.481989 2.2205608
79.897644 26.193365 2.3340344
83.457954 26.255699 2.0202665
83.727219 26.363569 2.048162
85.478661 26.247826 2.2387104
85.693825 26.321133 2.2623825
86.175545 26.340649 2.3158698
50.349617 26.757895 2.0069275
59.306808 26.773554 2.346586
59.562096 26.956879 2.2722907
60.974209 26.97147 2.0387826
61.370003 26.728111 2.0233207
61.57476 26.629772 2.0125887
78.098427 26.571869 2.0944977
78.703636 26.610489 2.1662784
79.764107 26.712778 2.2952459
83.705147 26.678486 2.043982
86.332718 26.726257 2.3345709
86.83271 26.613117 2.3904266
50.281425 27.150316 2.0234299
59.82325 27.129116 2.1994004
61.07518 27.111141 2.0006108
79.699066 27.31826 2.2640104
80.943176 27.007896 2.4392095
83.380775 27.145098 2.0069742
83.639137 27.011789 2.0355387
86.841721 27.300838 2.3966441
87.009087 27.366581 2.4165206
60.257168 27.768482 2.0237293
79.988815 27.505838 2.2959156
86.991737 27.553749 2.4166121
87.196251 27.753208 2.4430268
50.412304 28.1364 2.0185082
50.501541 28.239052 2.0055542
87.118355 28.055744 2.4382772
50.966141 28.77434 2.4984674
51.090298 28.554239 2.4733593
85.397842 28.813881 2.2478976
50.661316 29.382744 2.0042841
84.889099 29.295343 2.1961687
50.278625 29.649767 2.0772882
50.641319 29.56698 2.0125167
85.257378 29.68651 2.2481539
85.519249 29.959515 2.286165
49.731464 30.238329 2.1908221
50.337585 30.283482 2.0862999
50.618172 30.154057 2.0333581
85.040588 30.27718 2.2363648
38.190849 30.982716 2.4073434
48.762959 30.860994 2.385325
49.541531 30.903959 2.2485442
50.444267 30.511677 2.075139
50.614899 30.820648 2.0558116
84.219055 30.730797 2.1487942
84.679764 30.781637 2.2065742
85.116119 30.80312 2.2607605
30.754452 31.410799 2.0931129
38.201447 31.271076 2.4273763
38.738663 31.483234 2.3817244
49.199371 31.093079 2.3169827
49.666428 31.176821 2.2371941
50.696011 31.166504 2.0540245
83.724358 31.399591 2.108448
