# .PCD v0.7 - Point Cloud Data file format
VERSION 0.7
FIELDS x y z
SIZE 4 4 4
TYPE F F F
COUNT 1 1 1
WIDTH 1521
HEIGHT 1
VIEWPOINT 0 0 0 1 0 0 0
POINTS 1521
DATA ascii
57.216167 42.032356 -1.3374344
50.936234 42.948635 -1.0083115
51.179268 42.500557 -1.0643458
52.480965 42.979557 -1.1775203
52.739792 42.806622 -1.1868529
53.112064 42.575443 -1.1997063
54.754108 42.866421 -1.241685
55.255325 42.625565 -1.2613963
55.536369 42.500168 -1.2739533
56.429771 42.976402 -1.2911023
56.75222 42.880573 -1.3022037
57.209911 42.76786 -1.3187655
58.323009 42.567844 -1.379083
89.44413 42.908295 -1.0069416
91.937424 42.917629 -1.095149
92.050201 42.783371 -1.1097405
50.86882 43.001072 -1.0052633
51.887527 43.3936 -1.1612242
52.225662 43.149067 -1.1710849
53.870331 43.410645 -1.202947
54.243336 43.165752 -1.2189631
54.507095 43.002785 -1.2309141
55.372471 43.433468 -1.2502855
55.746784 43.254517 -1.2633626
56.177361 43.067768 -1.2815447
51.700531 43.721497 -1.1227599
53.312756 43.841755 -1.1772033
53.62785 43.595596 -1.1903293
54.748161 43.817638 -1.2232298
55.122612 43.573936 -1.2401315
51.650909 44.245342 -1.0375925
52.778854 44.304111 -1.1567981
53.060822 44.053913 -1.1666476
53.965401 44.454063 -1.1834692
54.243656 44.202229 -1.1994795
72.266953 44.495064 -1.2280686
51.21764 44.728607 -1.0130447
52.342201 44.787956 -1.1314707
52.5508 44.549397 -1.1430298
53.487198 44.989929 -1.149217
53.705746 44.719776 -1.1684892
72.279297 44.563343 -1.2229022
51.902504 45.387379 -1.100076
52.15239 45.024899 -1.1194428
53.299538 45.250122 -1.1324018
51.74847 45.66819 -1.0823047
52.914715 45.841362 -1.0996237
53.065788 45.593246 -1.112667
51.490925 46.338131 -1.0325578
51.553844 46.152233 -1.0462784
52.729183 46.256897 -1.0714607
53.006775 46.288929 -1.0091746
52.423054 46.884956 -1.0490742
52.563709 46.610119 -1.0549772
52.298756 47.248875 -1.0337447
52.212627 47.691982 -1.0085496
52.092857 48.077263 -1.0014255
65.34111 50.496471 -1.4989409
66.749123 50.465885 -1.3245991
67.092804 50.446949 -1.4075594
72.895157 50.430782 -1.2994663
73.200661 50.361324 -1.346826
73.673256 50.342052 -1.4143112
74.242844 50.360981 -1.4928778
106.93258 50.120567 -1.0463805
107.13312 50.381763 -1.032016
64.271683 50.912365 -1.1960918
64.763901 50.805088 -1.2936816
65.232803 50.740253 -1.2571957
65.723633 50.690575 -1.2118585
66.241371 50.655766 -1.2742444
66.699356 50.66259 -1.0953521
72.788406 50.850296 -1.2575302
73.140984 50.666512 -1.3184599
75.316345 50.983208 -1.0148385
63.463306 51.437546 -1.0078923
63.790791 51.261387 -1.0826771
64.20076 51.14904 -1.0828881
64.672127 51.080776 -1.0772107
65.044922 51.04501 -1.1722251
68.66523 51.073662 -1.4013009
69.086487 51.026039 -1.4894338
72.493172 51.31192 -1.1880472
72.679749 51.191216 -1.2212694
63.429699 51.573292 -1.0109235
63.720974 51.530289 -1.0839524
72.768188 51.804611 -1.1971555
73.066727 51.703064 -1.2442681
72.715401 52.222355 -1.1663778
73.271233 52.235245 -1.2419667
73.569115 52.136398 -1.2884834
72.742874 52.730713 -1.142894
73.019569 52.61314 -1.1867461
73.61039 52.930073 -1.2505296
66.950699 53.289703 -1.037997
67.007477 53.302067 -1.0484247
72.789421 53.154953 -1.1273795
73.46035 53.16148 -1.2180192
73.881447 53.140003 -1.2764163
78.928429 53.069878 -1.2465918
66.92437 53.759064 -1.0379415
71.990097 53.714184 -1.498765
72.022308 53.951305 -1.4968448
73.483681 53.86441 -1.1862092
73.630356 53.925842 -1.2029949
74.116669 53.916042 -1.2689766
78.979004 53.79118 -1.2032344
66.961342 54.25597 -1.0520902
72.059105 54.265202 -1.4939789
72.847237 54.321304 -1.0800213
73.168915 54.226692 -1.1271626
73.727234 54.087433 -1.2082872
79.092476 54.473724 -1.1700463
80.069557 54.480186 -1.2705333
66.992516 54.55891 -1.0632081
72.105461 54.723389 -1.4894431
72.785545 54.840786 -1.0493542
73.245361 54.591724 -1.1208556
73.567657 54.558006 -1.1652036
74.416435 54.696484 -1.2721316
74.823921 54.65567 -1.3285787
79.035599 54.532074 -1.1603892
72.147888 55.232433 -1.4845415
72.84005 55.231216 -1.0404875
73.23214 55.47654 -1.0818468
73.761581 55.149765 -1.1649706
74.120056 55.18224 -1.210986
80.183205 55.32687 -1.2273078
58.304455 55.9949 -1.0063665
59.139027 55.876358 -1.0215112
72.170631 55.615826 -1.4802376
72.945679 55.668354 -1.0369503
73.329834 55.725471 -1.0847149
73.841278 55.546219 -1.1588168
80.082886 55.957272 -1.1770928
58.386116 56.007683 -1.0112844
58.748428 56.018635 -1.027738
59.02961 56.007278 -1.0392925
72.229195 56.261658 -1.4781657
73.367615 56.039684 -1.0774298
73.852844 56.229359 -1.133131
72.155037 56.736099 -1.4597325
73.975372 56.665009 -1.1324797
74.163429 56.706024 -1.1552224
80.209671 56.518593 -1.1551609
80.90873 56.629745 -1.2195587
93.196854 56.672485 -1.244637
72.07251 57.250252 -1.4410367
74.647919 57.342533 -1.1942452
81.195007 57.196579 -1.2138364
81.513939 57.240067 -1.2436092
92.986481 57.301636 -1.1815383
93.114235 57.341057 -1.1874522
93.515114 57.076012 -1.2358522
71.951706 57.822479 -1.4177978
72.020844 57.593987 -1.4299723
74.836151 57.703342 -1.2055035
75.174568 57.954166 -1.2398927
93.256828 57.69886 -1.1699905
71.836937 58.240585 -1.3982843
75.39138 58.371307 -1.2530727
71.680191 58.748352 -1.3735427
75.327904 58.569572 -1.2382979
75.652573 58.842175 -1.2703315
71.483368 59.429688 -1.3449961
71.575516 59.118183 -1.3579707
75.977875 59.259968 -1.2976446
76.002945 59.358723 -1.2975905
98.570618 59.462002 -1.4063616
71.426598 59.661572 -1.3374375
98.544273 59.753551 -1.3822387
71.328026 60.062759 -1.3250253
69.379967 60.973434 -1.0702486
69.660988 60.702103 -1.1032306
70.253395 60.653141 -1.1815567
71.040802 60.782074 -1.2898203
69.207245 61.514957 -1.0566859
69.713821 62.893784 -1.1448116
76.831947 62.841022 -1.3001833
77.18399 62.924751 -1.3405182
77.839386 62.932129 -1.4198452
78.212646 62.960857 -1.4646145
82.431282 62.924015 -1.0115951
82.580353 62.671234 -1.0395825
69.378716 63.329285 -1.1120471
69.590256 63.051117 -1.1324344
75.984543 63.372993 -1.1865091
76.331398 63.280689 -1.2297128
76.719536 63.118111 -1.2798433
77.444679 63.034523 -1.3692207
77.688187 63.076302 -1.3976429
68.905304 63.958172 -1.0690668
69.136139 63.595093 -1.0883274
75.873375 63.65276 -1.1673017
76.329605 63.634911 -1.2213986
68.709785 64.226959 -1.0527419
75.832108 64.30056 -1.1489877
76.012932 64.06395 -1.1748559
68.24762 64.820244 -1.0149699
75.568985 64.588829 -1.1128893
76.238518 64.97567 -1.1824818
68.066452 65.031799 -1.0003908
75.302887 65.330566 -1.069057
75.694466 65.19239 -1.1159489
74.911781 65.694 -1.0190492
75.264687 65.570374 -1.0606189
108.22122 68.467361 -1.3975425
108.65018 68.445206 -1.4288878
109.07216 68.417267 -1.4601948
109.53154 68.401741 -1.4931753
108.03925 68.591461 -1.37569
108.08095 69.311707 -1.324922
108.097 69.608978 -1.303926
108.13824 70.356819 -1.2512728
108.17302 70.683594 -1.2294645
106.4224 71.269539 -1.0656829
108.22169 71.333214 -1.1847792
108.27391 72.718475 -1.0862962
108.3077 73.272102 -1.0479577
108.3399 73.831871 -1.0091288
93.652664 74.887253 -1.4794121
98.529617 84.886871 -1.4612005
98.403412 85.810898 -1.4079037
98.882568 85.742836 -1.4546187
100.38779 94.95623 -1.1887348
103.23131 94.66526 -1.4527569
99.89402 95.225105 -1.1342597
100.15591 95.021362 -1.1656723
47.7892 -9.3658142 -0.52964205
51.824371 -8.0962296 -0.74011844
49.217041 -7.6993275 -0.56959504
49.502007 -7.7204971 -0.587897
50.813637 -7.5610199 -0.66358703
51.312889 -7.5074463 -0.69221205
51.577095 -7.7310314 -0.71463674
48.987045 -6.2597694 -0.51258248
66.284302 15.484061 -0.80936152
66.7715 15.443733 -0.8306092
67.203026 15.367538 -0.85037988
65.809708 15.512276 -0.78866261
75.456619 20.118345 -0.96757585
75.678902 20.259361 -0.96823174
75.482292 20.725405 -0.94623643
75.811607 20.826056 -0.95094389
75.956276 21.009134 -0.94784766
75.265358 22.302715 -0.88291007
76.218994 22.854181 -0.88510638
76.281639 23.226046 -0.8723557
76.324142 23.620564 -0.85816664
76.322418 24.233496 -0.83437127
76.348305 24.879436 -0.809668
76.619881 24.599262 -0.82646811
76.343605 25.321405 -0.79209399
76.696198 25.409794 -0.79587895
77.369225 25.255417 -0.81565791
77.529541 25.165657 -0.82248801
85.297302 25.210703 -0.94623351
76.453537 25.716949 -0.77862626
76.605896 25.832554 -0.77708262
77.436081 25.590399 -0.8033635
77.754326 25.529619 -0.81200093
78.13501 25.63755 -0.81475455
78.901909 25.756811 -0.82377487
79.21553 25.801023 -0.82744163
84.953636 25.897127 -0.90937179
85.041298 25.667112 -0.92138308
78.155479 26.150003 -0.79377705
79.149521 26.337536 -0.80335695
83.966904 26.128866 -0.88552576
84.9412 26.061993 -0.90139276
85.199844 26.230406 -0.89661109
85.705299 26.354567 -0.8968417
79.197998 26.799902 -0.78422469
82.899155 26.615881 -0.84838527
83.060753 26.69589 -0.84686363
85.752182 26.848045 -0.87340891
86.211838 26.938705 -0.87425399
79.338013 27.233494 -0.76758564
79.577843 27.424171 -0.76301223
80.139915 27.430275 -0.77141857
81.266083 27.434938 -0.78779626
86.34758 27.056622 -0.86995894
79.610184 27.60461 -0.75550842
80.398285 27.545477 -0.77012962
80.634224 27.677336 -0.76762766
81.413673 27.584787 -0.78300279
81.583244 27.64447 -0.78261191
84.44487 28.711727 -0.76677811
43.426743 29.126415 -0.65688902
43.732941 29.102179 -0.67201424
44.260185 29.090597 -0.69528872
44.692356 29.050793 -0.71735317
83.933632 29.299057 -0.7319389
84.065598 29.403233 -0.72814143
84.301903 29.566294 -0.72241801
88.886063 29.976158 -0.74249107
83.681923 30.338369 -0.676907
83.735916 30.748301 -0.65645659
88.257622 30.695278 -0.69838816
83.763062 31.314783 -0.62739259
84.024605 31.05842 -0.64319485
83.899513 31.756094 -0.60547769
83.991577 32.124344 -0.58675706
84.202972 32.356064 -0.57610577
84.844582 32.269318 -0.58599764
48.13205 32.797184 -0.50594258
84.821228 32.888588 -0.55202097
84.323792 33.410557 -0.51955277
84.568062 33.153511 -0.53554624
84.320396 33.586761 -0.50976294
61.5989 34.974113 -0.94718361
61.444984 35.049248 -0.93108481
61.819004 35.14275 -0.94302094
56.975437 37.629757 -0.8052575
57.115215 37.781509 -0.79102582
52.151882 38.299698 -0.71627647
52.793709 38.472042 -0.95716828
53.252399 38.350853 -0.61490703
55.93578 38.39518 -0.66241354
56.170849 38.449863 -0.66395748
57.054764 38.014816 -0.75729781
51.973053 38.69001 -0.71701121
52.134682 38.708939 -0.73539931
52.922619 38.522274 -0.94998914
53.239956 38.570438 -0.88420683
53.730286 38.607025 -0.89551467
54.82201 38.673 -0.94615394
55.19099 38.697151 -0.94888932
55.824368 38.677666 -0.85028905
56.307323 38.760426 -0.90203583
56.652817 38.753948 -0.97601253
52.035175 39.230881 -0.84046316
51.996498 39.794937 -0.75644106
52.012054 39.749371 -0.76316404
51.940399 40.222469 -0.69389683
52.000916 40.023743 -0.72264022
51.899029 40.77684 -0.77511913
50.862694 41.054134 -0.96478397
51.261444 41.438671 -0.88636047
51.87394 41.250355 -0.70490164
51.211781 41.718269 -0.84395015
51.801014 41.623451 -0.76686245
51.418102 42.025669 -0.78633815
51.754856 42.300732 -0.72824061
51.694466 42.782856 -0.75268394
50.932331 43.29937 -0.95181561
51.144958 43.362427 -0.92348945
51.664906 43.191154 -0.70187253
89.152473 43.277225 -0.96751863
51.262127 43.716999 -0.85729569
51.752171 43.725971 -0.53924745
89.068794 43.713997 -0.93009973
91.025208 43.784691 -0.9941889
51.385136 44.090698 -0.78834409
51.70557 44.249432 -0.7358287
90.243141 44.158508 -0.93673509
90.579239 44.394264 -0.92997891
51.472961 44.69426 -0.98604971
51.635048 44.644753 -0.80069196
90.310715 44.915131 -0.87897724
90.670937 44.667328 -0.9115212
51.659119 45.368717 -0.7288155
52.182957 45.428005 -0.59389001
52.724022 45.456455 -0.84137779
53.123608 45.471169 -0.79500353
89.824799 45.337593 -0.82798445
90.237228 45.08596 -0.86273736
51.483456 45.588943 -0.85192484
51.598202 45.670452 -0.63364625
52.038467 45.648903 -0.77000487
52.653664 45.501923 -0.95862442
89.782097 45.659996 -0.80066222
90.127121 45.905899 -0.79319447
51.333622 46.215023 -0.73867285
51.664841 46.103577 -0.7114591
52.20171 46.231659 -0.79653329
52.812237 46.261681 -0.68793952
53.139969 46.270733 -0.64835757
90.228439 46.22641 -0.77102518
51.38673 46.80695 -0.86187965
51.568661 46.779148 -0.71442086
52.695503 46.732128 -0.70401514
53.068932 46.809395 -0.81160754
90.33577 46.654625 -0.74033123
90.551498 46.753578 -0.73999548
95.108078 46.853924 -0.89352435
51.428089 47.266811 -0.85058612
51.839191 47.284267 -0.69153434
52.081898 47.262859 -0.65411216
52.80014 47.280003 -0.69419169
53.141235 47.275379 -0.74390876
91.439697 47.175251 -0.73739725
91.569527 47.24844 -0.73606652
93.030304 47.499519 -0.76751322
51.328442 47.952694 -0.73316431
52.908039 47.702377 -0.78354055
53.094555 47.739933 -0.70241529
92.296959 47.968559 -0.70336562
93.332382 47.854694 -0.74935645
93.867706 47.734493 -0.7781195
94.738358 47.608814 -0.81921357
51.372616 48.228119 -0.74314088
51.676842 48.261902 -0.64938641
52.053558 48.332191 -0.99200243
52.66452 48.475739 -0.73778933
92.376434 48.084908 -0.69670528
93.318924 48.212315 -0.71974462
95.646095 48.495323 -0.77918428
96.183571 48.376404 -0.80795759
51.299522 48.807095 -0.73915297
51.942547 48.929569 -0.94429415
52.098858 48.575665 -0.88472891
52.666367 48.661453 -0.7165007
53.093884 48.636955 -0.66740638
95.695503 48.751499 -0.75999326
51.305092 49.255802 -0.69539636
51.940037 49.269646 -0.93893474
52.318153 49.062775 -0.89901316
52.640045 49.05838 -0.6752224
53.039387 49.091888 -0.67420858
95.853966 49.011723 -0.74431342
96.172882 49.276615 -0.7339074
51.255455 49.75095 -0.68001187
51.980999 49.752758 -0.9515627
52.254662 49.966629 -0.63655722
52.706432 49.953396 -0.56236464
51.213844 50.142418 -0.75395948
51.998447 50.036182 -0.9450745
52.140709 50.208614 -0.8874743
52.725597 50.025242 -0.71811223
96.294243 50.274883 -0.65606993
98.941353 50.358585 -0.74315161
99.540283 50.114422 -0.78453535
51.172882 50.75771 -0.66416615
51.727051 50.773582 -0.7179504
52.182194 50.793541 -0.83492738
52.63166 50.890755 -0.62886149
64.979706 50.994488 -0.90666884
65.225677 50.947922 -0.87969869
65.739403 50.984509 -0.81212097
66.109016 50.809544 -0.88904685
66.669533 50.729736 -0.8069635
96.082596 50.562992 -0.62476629
99.505127 50.960419 -0.71346003
51.19426 51.06871 -0.80377644
52.335407 51.254742 -0.80051506
52.692474 51.288197 -0.69442809
63.358658 51.497982 -0.6739772
63.826626 51.341209 -0.81261289
64.248444 51.294418 -0.88289011
64.732918 51.182087 -0.8428629
65.226944 51.269508 -0.7922833
65.714455 51.243763 -0.80420774
66.172867 51.211586 -0.77982605
66.951187 51.049923 -0.7464183
75.436615 51.483418 -0.9919619
98.602493 51.443882 -0.64133877
99.638229 51.105774 -0.70616001
52.415104 51.835587 -0.91331261
62.485703 51.977043 -0.77339351
62.816536 51.860634 -0.83633327
63.196323 51.652653 -0.84747696
63.788185 51.674217 -0.73510444
64.168503 51.674084 -0.74404544
64.755325 51.6479 -0.61967069
65.183235 51.693275 -0.70014977
65.639755 51.694508 -0.78676915
66.901726 51.663788 -0.71864539
67.134659 51.749611 -0.75453657
73.552734 51.590801 -0.78786558
98.498344 51.572639 -0.62695068
101.25066 51.984447 -0.6905883
107.10078 51.882984 -0.90691656
51.798958 52.258484 -0.73777264
52.261917 52.233017 -0.81141937
52.604946 52.269699 -0.90767711
61.877296 52.45092 -0.67859876
62.282417 52.27795 -0.75022733
62.721043 52.173355 -0.74414581
63.208641 52.180733 -0.71710402
63.842056 52.227154 -0.69950652
64.287712 52.222038 -0.78885537
64.645317 52.168991 -0.60490173
66.930901 52.235058 -0.70928359
102.59727 52.263489 -0.71527356
107.11853 52.05291 -0.8934657
51.195263 52.601227 -0.83593994
51.755196 52.501286 -0.75306851
52.306805 52.601856 -0.68253934
52.782398 52.771793 -0.82868809
53.029388 52.981022 -0.89680845
61.4519 52.917027 -0.75074315
61.782131 52.767002 -0.71661884
62.146019 52.63781 -0.69647294
62.578182 52.754089 -0.50040907
63.905159 52.508583 -0.72608179
64.095016 52.693306 -0.77268034
102.41479 52.54969 -0.68496937
107.14256 52.899113 -0.82403833
53.214302 53.251801 -0.89601213
61.306122 53.244404 -0.71417511
61.713879 53.138027 -0.61362791
62.363613 53.237835 -0.50439239
62.678436 53.011086 -0.76583046
63.605759 53.162727 -0.70834357
64.408493 53.36956 -0.86986732
64.68483 53.258862 -0.91711134
107.06692 53.229 -0.79387873
51.79393 53.861492 -0.82014221
53.459862 53.546772 -0.89219773
53.690117 53.802349 -0.8915062
60.857468 53.765537 -0.73909003
61.223675 53.797909 -0.68842876
61.505379 53.513378 -0.62885946
62.339184 53.599045 -0.53117591
64.334076 53.627785 -0.87109083
66.940331 53.75 -0.68818301
106.99681 53.728176 -0.74974197
107.13739 53.745625 -0.75328422
50.898815 54.317932 -0.58944368
51.93623 54.080379 -0.81746066
52.107407 54.342434 -0.81643534
53.942471 54.05772 -0.89137816
54.244034 54.298767 -0.88930458
60.460266 54.305786 -0.78632033
60.687458 54.163723 -0.70263362
61.249603 54.045513 -0.71110708
61.811089 54.394093 -0.53023225
63.332047 54.444427 -0.75581455
63.749702 54.260487 -0.81053281
64.245346 54.178364 -0.89054286
65.927658 54.407131 -0.87635016
66.227539 54.300705 -0.92479426
66.610474 54.290771 -0.99091071
107.16868 54.256939 -0.71165246
50.022243 54.964695 -0.70005959
50.896908 54.718391 -0.60582376
51.424091 54.880051 -0.56501693
51.662823 54.944153 -0.54753286
52.358616 54.694424 -0.8163141
52.562 54.934692 -0.81528151
54.489098 54.502541 -0.89143056
54.74276 54.695034 -0.89554495
55.085312 54.933445 -0.90200448
59.825146 54.764366 -0.8673166
60.25259 54.713215 -0.76656544
60.641769 54.750732 -0.68878555
61.405376 54.804371 -0.52114809
61.83535 54.647331 -0.55787402
62.781696 54.840275 -0.70525128
63.165443 54.578125 -0.74041408
64.320168 54.873638 -0.6373024
64.860863 54.916729 -0.72102642
65.297264 54.836941 -0.78656763
65.795158 54.805073 -0.81186581
66.110634 54.844929 -0.91941303
107.20615 54.776745 -0.66943556
49.970661 55.056694 -0.70862418
50.122875 55.33194 -0.70518911
51.863201 55.088482 -0.53835559
52.060989 55.194824 -0.52829909
52.808586 55.205051 -0.81572223
53.059357 55.450157 -0.81587243
55.332424 55.093765 -0.90881658
55.739159 55.31189 -0.91886342
56.068958 55.465469 -0.92765975
59.418781 55.386368 -0.94949937
59.772781 55.23333 -0.74016154
60.037846 55.044186 -0.67296463
60.933102 55.21162 -0.51194495
61.243248 55.283707 -0.55238026
61.852829 55.013523 -0.5959
62.350632 55.150341 -0.67352098
63.298542 55.497555 -0.52599549
63.938324 55.094849 -0.59195644
64.398621 55.166046 -0.66200894
64.710129 55.137486 -0.70730436
65.259323 55.039753 -0.78790879
66.93782 55.042313 -0.68350941
67.082054 55.226692 -0.7045545
107.22961 55.29121 -0.62707353
50.292065 55.623707 -0.7023502
50.872849 55.791725 -0.65943044
51.17194 55.939037 -0.64259082
53.30854 55.672623 -0.81727427
53.619247 55.927139 -0.81966752
56.318375 55.561768 -0.9342705
56.745869 55.701221 -0.94656241
57.247356 55.832722 -0.96341366
57.742474 55.929855 -0.98279381
58.090778 55.973045 -0.99654573
59.358536 55.773689 -0.83754677
59.582123 55.811729 -0.74972105
60.27528 55.675819 -0.50092322
63.395084 55.90509 -0.56175321
63.812733 55.904171 -0.61677659
64.253777 55.759224 -0.66989493
64.710594 55.675652 -0.73151577
66.197487 55.878349 -0.58478487
66.576164 55.78857 -0.63567573
67.316208 55.906906 -0.73990285
67.514915 55.793221 -0.7678327
72.723686 55.98457 -0.9962917
107.26886 55.635139 -0.59954661
50.842999 56.3321 -0.6920805
53.859173 56.110035 -0.82277662
54.220253 56.357502 -0.82830691
58.899124 56.346149 -0.78748006
59.18008 56.202549 -0.66296428
59.622437 56.264278 -0.51685923
62.770882 56.261803 -0.50654411
63.333382 56.386135 -0.58210564
63.769897 56.052589 -0.61904675
64.151451 56.014599 -0.6686129
64.674217 56.329079 -0.7575646
65.791878 56.1516 -0.53415024
66.211746 56.183289 -0.58994317
66.756874 56.25462 -0.66446137
67.281158 56.184948 -0.7363385
51.168812 56.761311 -0.69230908
53.459602 56.685303 -0.54246885
53.795902 56.57938 -0.5177151
54.307457 56.587543 -0.63657206
54.778099 56.721043 -0.76273447
55.192322 56.914227 -0.82516199
58.808186 56.78186 -0.68669897
59.094753 56.580299 -0.52000445
62.732941 56.636986 -0.52578217
65.655022 56.901562 -0.52825111
66.283638 56.850765 -0.60803324
51.429127 57.089985 -0.69474328
51.657406 57.334469 -0.6963281
55.203022 57.101147 -0.66817337
55.749519 57.149586 -0.86524326
56.249432 57.315186 -0.87928212
56.742001 57.439869 -0.89404005
57.075378 57.498928 -0.9035905
58.437176 57.373341 -0.78126556
58.627529 57.288849 -0.6584217
65.469246 57.215866 -0.51102281
65.834663 57.017288 -0.55292422
66.130226 57.075329 -0.59154028
51.908825 57.622425 -0.70128542
52.153851 57.854568 -0.70461762
54.944046 57.599625 -0.57108569
57.252171 57.541798 -0.91176564
57.744328 57.596424 -0.92852515
58.184937 57.603455 -0.94214892
65.305061 57.653362 -0.50025827
52.384777 58.072464 -0.70921993
58.223911 58.172791 -0.65708458
89.978508 58.099808 -0.91061348
58.024506 58.75703 -0.71436661
54.406891 59.315174 -0.74798155
54.679867 59.435844 -0.75528175
57.956047 59.06427 -0.74592596
48.843674 59.723701 -0.50021714
54.915436 59.540184 -0.76263195
55.252483 59.678795 -0.77411264
55.756348 59.865269 -0.79263514
56.093468 59.971848 -0.80547285
91.254639 59.784424 -0.87202597
49.31031 60.284607 -0.50105101
56.324242 60.04826 -0.81589651
56.749454 60.141552 -0.83231336
57.262188 60.200726 -0.85007674
57.673012 60.200726 -0.86194986
49.748363 60.730938 -0.50273263
50.048203 60.974117 -0.50284195
50.293713 61.196251 -0.50544572
69.822754 61.197372 -0.5253042
70.236313 61.275799 -0.569233
70.587357 61.366814 -0.60642356
69.701736 61.622463 -0.50688088
80.449287 62.937695 -0.81910914
80.766876 62.942982 -0.84939593
53.473549 63.416252 -0.58403343
53.575909 63.467808 -0.58756751
80.327438 63.068661 -0.80072802
80.546486 63.339432 -0.80796772
81.471832 63.313919 -0.89821905
82.165367 63.213467 -0.97050303
53.817295 63.555317 -0.59407932
54.251915 63.70224 -0.60666925
54.763512 63.894417 -0.62530005
63.936039 63.887119 -0.54939657
64.140274 63.757763 -0.56316096
64.625732 63.778175 -0.60866177
79.105682 63.603855 -0.6576944
80.635109 63.633022 -0.80159873
81.031868 63.807281 -0.83074254
82.144478 63.596642 -0.94851297
55.24947 64.072433 -0.64530271
55.747009 64.219841 -0.6658268
56.25288 64.337303 -0.68688941
56.761364 64.443306 -0.70972264
57.18486 64.492577 -0.72774273
63.915073 64.293282 -0.56216151
64.285355 64.151749 -0.59020966
65.275002 64.253151 -0.68666035
78.013 64.412979 -0.51666451
80.81913 64.351204 -0.78318447
81.239243 64.255325 -0.82798237
82.41655 64.327995 -0.93705958
57.288582 64.507225 -0.73255169
57.594849 64.539009 -0.74664003
63.87487 64.651413 -0.57161266
81.266068 64.76622 -0.80506575
67.802032 65.402588 -0.98174262
68.018845 65.08625 -0.99661821
80.119797 65.005371 -0.68508345
66.441467 65.736641 -0.84989846
67.277481 65.965157 -0.94246984
74.64547 65.829514 -0.98731881
66.735992 66.100822 -0.89109015
81.189453 66.001984 -0.73743707
82.302597 66.323189 -0.82656473
73.63488 66.942841 -0.86245054
82.493973 66.676544 -0.82740372
82.534088 66.843689 -0.8230769
73.682907 67.215263 -0.86436248
73.301811 67.908714 -0.81685811
73.619919 67.626305 -0.85310107
73.071579 68.026802 -0.79181975
73.629272 68.989304 -0.84023875
73.671524 69.290115 -0.84181172
73.777023 69.771652 -0.84831363
73.696548 70.313919 -0.83559257
74.020943 70.363518 -0.86806077
70.460213 70.769958 -0.51995009
70.671089 70.701279 -0.5396964
73.717758 70.955368 -0.83271164
73.779129 71.052269 -0.83814752
99.208496 71.379646 -0.56369692
99.653069 71.262741 -0.60249609
73.779488 71.603661 -0.83417946
99.20388 71.753693 -0.53626752
73.707718 72.225571 -0.82294112
73.731133 72.859894 -0.82130796
73.762245 73.310768 -0.82175201
71.247047 73.814728 -0.5839715
73.847885 74.191681 -0.82531255
74.002304 74.155731 -0.84036571
108.35886 74.287262 -0.97709984
73.867393 74.773201 -0.82434458
108.38843 74.746635 -0.94555467
73.953552 75.381721 -0.82976013
108.39365 75.19072 -0.91350698
73.916435 75.542747 -0.8255443
74.000137 75.933327 -0.83181518
105.17384 75.644318 -0.66094249
108.42722 75.767609 -0.87377781
73.959503 76.212891 -0.82687104
73.930275 76.51944 -0.82296222
74.100616 78.378761 -0.83266562
73.908348 78.53772 -0.81461328
74.084709 78.629501 -0.83050281
74.043892 79.221344 -0.82526183
111.91579 79.967911 -0.80683511
74.157761 81.235252 -0.83147407
74.197258 82.112717 -0.83368665
44.590889 -8.0246582 -0.28248161
44.466045 -7.7111282 -0.26464623
45.415051 -7.2016678 -0.31176585
45.767036 -6.5920563 -0.31635112
47.763885 -6.504818 -0.44265789
48.122299 -6.6797523 -0.47063869
47.271423 -6.0485306 -0.39750022
47.819569 -6.2403145 -0.43827766
48.694378 -6.261631 -0.4942748
46.295143 -5.6392307 -0.32200211
46.69775 -5.5939026 -0.34680623
47.21069 -5.7631087 -0.38500103
49.556625 -4.2092323 -0.48734611
48.54034 9.3541183 -0.013886154
54.733921 11.369297 -0.34476835
61.532959 20.372871 -0.45315343
61.355095 20.712341 -0.4347074
61.780884 20.785131 -0.45305786
62.064594 20.800734 -0.46607035
60.298004 22.201248 -0.3394025
56.382759 24.171568 -0.068963945
56.594524 24.221832 -0.079919316
62.831947 24.350229 -0.39741427
56.857285 24.827942 -0.077605724
60.173042 24.813129 -0.25773799
63.231049 24.897339 -0.39882472
63.604668 24.878145 -0.41553527
57.229359 25.430519 -0.081549369
57.507256 25.48488 -0.095817506
57.617859 25.974442 -0.087913573
57.740063 26.133102 -0.090205967
62.154728 26.42157 -0.30606288
57.924305 26.841595 -0.080058992
58.218201 26.894817 -0.09477669
60.68454 26.971973 -0.22076511
61.757862 26.585936 -0.28303897
58.333294 27.031857 -0.097190559
59.407608 27.451052 -0.14252549
59.619751 27.473129 -0.15286833
60.33672 27.330357 -0.19325294
60.564941 27.11215 -0.21084982
58.288433 27.735077 -0.074433357
58.778717 27.818884 -0.098657511
59.243713 27.608816 -0.12939169
59.775311 27.580339 -0.15775162
46.425781 28.853285 -0.011150032
48.123486 32.948997 -0.49106264
47.971115 33.061455 -0.47383153
48.072235 33.038681 -0.48030922
84.348381 33.859558 -0.49475518
84.390533 34.288139 -0.47092518
84.719322 34.681129 -0.45064616
85.292175 34.845222 -0.44464707
85.545547 34.834641 -0.44674087
86.299103 34.932949 -0.4452439
85.797928 35.171898 -0.42840952
86.047897 35.448769 -0.41339302
86.278824 35.73407 -0.39751172
86.689728 35.952045 -0.38636672
86.972427 36.002888 -0.3845945
87.190628 36.198174 -0.37364066
89.436722 36.308022 -0.37607884
87.250763 36.68679 -0.34376693
87.616417 36.993706 -0.32609624
95.328804 36.753551 -0.36642748
51.62434 37.397358 -0.21526514
55.613811 37.248581 -0.019510873
88.368492 37.28727 -0.31030956
51.846149 37.557056 -0.20948935
52.199303 37.985268 -0.18364179
57.064041 37.687439 -0.43683636
88.765259 37.668091 -0.28730521
89.027473 37.868851 -0.27518982
90.240753 37.647209 -0.29329169
52.459312 38.286251 -0.16598278
52.707302 38.437222 -0.16219997
88.498222 38.49118 -0.23307556
51.342934 38.883106 -0.061898489
52.172962 38.909336 -0.49030474
53.636093 38.54734 -0.1921739
55.655666 38.560246 -0.28289324
88.927917 38.872871 -0.20911682
51.300076 39.227711 -0.027533604
52.130314 39.265305 -0.44567892
88.190834 39.362839 -0.17464656
88.868332 39.382568 -0.17498761
89.073685 39.163696 -0.19012195
93.677452 39.188225 -0.19871098
96.311615 39.354336 -0.19211203
52.090965 39.770908 -0.38322544
88.7827 39.915092 -0.13888127
89.282341 39.549057 -0.16476899
93.859734 39.712677 -0.16284668
94.193939 39.962666 -0.14601785
35.260368 40.353321 -0.19477135
52.038055 40.255001 -0.32377079
89.191429 40.168797 -0.1224409
89.624847 40.427094 -0.10556763
33.613667 40.698853 -0.15717554
34.22963 40.821747 -0.14690861
34.600716 40.882362 -0.14198083
37.802048 40.899734 -0.14895034
51.991333 40.957001 -0.23925114
52.019913 40.719223 -0.26793221
89.70752 40.514214 -0.099704087
33.199135 41.437737 -0.086206317
34.560028 41.32357 -0.099809945
37.81319 41.027599 -0.13650399
51.965069 41.276997 -0.20121178
89.577003 41.220322 -0.05024467
33.079121 41.695896 -0.061775584
34.630154 41.654182 -0.068677276
35.053421 41.986179 -0.038273692
35.819077 41.698071 -0.067030191
51.885826 41.783592 -0.29916289
89.205429 41.678959 -0.017299175
34.778625 42.315628 -0.0069865584
36.946644 42.035824 -0.037422657
39.492744 42.48399 -0.00046354532
51.818604 42.255352 -0.23572032
50.282768 42.866222 -0.0047919825
50.966991 42.919739 -0.0042111278
51.284279 42.852146 -0.014293531
51.73909 42.704945 -0.2092768
51.496109 43.252434 -0.28342825
51.798573 43.23106 -0.27971914
51.81184 43.79697 -0.26961011
41.621376 44.384617 -0.45055592
51.770546 44.247677 -0.29780516
41.449081 44.53772 -0.44122022
41.661346 44.57682 -0.43037578
42.122345 44.841156 -0.38933986
51.74366 44.745586 -0.23250639
51.312683 45.381004 -0.037121121
51.74081 45.244911 -0.19008397
52.002029 45.319984 -0.2873669
52.792068 45.411179 -0.46579731
41.039948 45.921207 -0.32461005
44.631428 45.788708 -0.21484794
51.3559 45.568596 -0.01566641
51.730106 45.77393 -0.26711041
52.085495 45.897289 -0.47022352
58.48333 45.908344 -0.20367758
58.50322 45.899639 -0.20627254
40.815334 46.376499 -0.29149383
44.562546 46.037743 -0.19397908
46.391602 46.322861 -0.10555953
46.781841 46.452324 -0.080419838
51.481712 46.221302 -0.49210471
51.624599 46.245785 -0.28318039
52.186687 46.195717 -0.2094094
52.731602 46.170486 -0.37200755
38.478828 46.661152 -0.3470037
38.546967 46.593502 -0.35051769
46.391735 46.69783 -0.071601607
46.764191 46.775578 -0.052005123
51.364178 46.9314 -0.42755136
51.601089 46.74297 -0.26766223
52.705135 46.64555 -0.31915405
40.249634 47.406128 -0.22250284
41.464561 47.189598 -0.19869357
41.602318 47.251934 -0.18866318
42.114037 47.153065 -0.17935389
42.741566 47.120117 -0.16048521
44.344711 47.167892 -0.10112504
46.717331 47.028961 -0.031202853
51.656929 47.255203 -0.21651407
52.005627 47.395378 -0.31586558
52.771545 47.230713 -0.38608673
40.125675 47.760132 -0.19759154
44.454544 47.796967 -0.044710517
51.426998 47.916607 -0.26458341
51.681664 47.752312 -0.18215512
52.045166 47.561478 -0.098224267
52.889591 47.695068 -0.41658664
39.989494 48.254139 -0.16239661
40.023457 48.24342 -0.16212717
44.460991 48.197304 -0.012291253
51.475208 48.220345 -0.26527485
51.582668 48.2272 -0.084236674
52.149906 48.412674 -0.24970093
52.565136 48.476837 -0.2877478
37.423416 48.766758 -0.21079499
37.502762 48.913216 -0.1967172
40.092896 48.515156 -0.13822609
51.403484 48.742813 -0.10881763
51.638836 48.778366 -0.24607806
52.105579 48.843651 -0.1964837
52.678074 48.658386 -0.3136088
37.708214 49.084934 -0.17646843
51.408741 49.386936 -0.23811185
51.841537 49.004021 -0.47382122
52.134266 49.014637 -0.34927511
52.641422 49.032234 -0.28421247
37.473305 49.739182 -0.13545626
37.752731 49.788589 -0.12225419
38.157608 49.823933 -0.10581416
51.346977 49.678375 -0.26596898
51.817059 49.739365 -0.25268248
52.409222 49.928894 -0.19814321
52.647926 49.949074 -0.330679
38.340218 50.169781 -0.074559271
51.265137 50.195843 -0.21796104
51.782387 50.187542 -0.33159548
52.358517 50.032829 -0.11675221
52.630215 50.029373 -0.33133245
51.195694 50.798939 -0.20607597
51.836464 50.696415 -0.34866577
52.335701 50.687897 -0.20718512
52.604229 50.786861 -0.32690659
38.499695 51.093193 -0.0048745275
51.89677 51.252502 -0.16219531
52.429245 51.236046 -0.34937105
52.599213 51.246845 -0.3292059
64.031143 51.43087 -0.48421153
65.239891 51.431824 -0.45432228
51.922802 51.728542 -0.20578927
52.019138 51.715626 -0.11738823
62.805763 51.990326 -0.48779714
65.027924 51.513466 -0.41890627
50.988506 52.411987 -0.20138372
51.316296 52.231346 -0.40723145
51.879387 52.221687 -0.27058005
52.220108 52.382957 -0.39167431
63.057209 52.413525 -0.34175372
51.71434 52.61655 -0.24608138
52.452072 52.558117 -0.37179792
52.564377 52.736938 -0.36617815
61.935364 52.848362 -0.40562007
62.293736 52.873333 -0.46352598
50.728779 53.467163 -0.22421694
61.459538 53.358242 -0.38490427
61.656818 53.223095 -0.39888588
62.112278 53.223713 -0.46496353
91.621033 53.439087 -0.22583413
92.117462 53.344852 -0.25150916
50.615013 53.738255 -0.23513834
61.308136 53.954327 -0.28454798
61.817417 53.640003 -0.4250465
62.037342 53.699955 -0.45551968
91.468773 53.759541 -0.19332755
91.565979 53.545994 -0.21484482
50.389896 54.260895 -0.25755948
51.124207 54.388344 -0.20737
61.417694 54.360237 -0.4779
61.527458 54.130699 -0.46854132
91.34993 54.368217 -0.13751864
91.802498 54.174786 -0.17012371
50.156654 54.749565 -0.28119126
51.16386 54.592499 -0.20880747
51.739784 54.92186 -0.18046625
60.425556 54.997612 -0.44024992
61.156754 54.78775 -0.49149212
65.380089 54.732147 -0.462717
90.900726 54.924942 -0.074072361
91.11512 54.655743 -0.10467277
91.644943 54.854156 -0.10680103
49.859558 55.160339 -0.30876946
50.112129 55.085976 -0.28986174
50.539822 55.497482 -0.26992339
51.936764 55.038162 -0.17222111
52.019119 55.084797 -0.16896698
59.926834 55.332603 -0.43538272
60.26783 55.330631 -0.43417206
60.694626 55.160172 -0.44686779
61.682755 55.384438 -0.3274262
62.037132 55.188557 -0.35319769
62.997448 55.446259 -0.48434716
63.032879 55.450047 -0.48906046
64.499367 55.087837 -0.35095674
64.519661 55.062405 -0.35312307
90.797867 55.250206 -0.042635977
91.210083 55.285583 -0.054418743
91.537811 55.299122 -0.065044284
50.188755 55.780941 -0.29928187
50.609421 55.578735 -0.26752344
59.83939 55.756168 -0.4417336
60.151394 55.640884 -0.39142272
60.934292 55.762505 -0.28070962
61.780991 55.806999 -0.36645132
62.342197 55.792019 -0.4268907
62.648903 55.697041 -0.45668444
91.249451 55.703114 -0.020159444
49.64753 56.393707 -0.34865159
51.135487 56.193989 -0.25423795
59.380054 56.16856 -0.49061766
59.780773 56.210854 -0.2819398
60.229969 56.37627 -0.267914
60.691429 56.36274 -0.30337942
61.352219 56.402199 -0.3650592
61.675289 56.387482 -0.39548531
62.328594 56.412804 -0.4657782
62.831982 56.057388 -0.2865445
63.119122 56.399693 -0.22072154
63.901134 56.18623 -0.30142799
64.626328 56.219101 -0.38792759
53.474072 56.773678 -0.17741615
53.792717 56.627594 -0.16047478
54.268517 56.584705 -0.28310546
54.70647 56.746193 -0.31372151
59.161652 56.846161 -0.23401654
59.915199 56.779915 -0.27564615
60.200886 56.824718 -0.2995235
60.844635 56.710033 -0.34185728
61.062305 56.817272 -0.36834812
61.811779 56.625843 -0.42565075
62.199268 56.659435 -0.33387703
64.624977 56.818344 -0.40079165
50.429729 57.16486 -0.32538366
50.572281 57.270447 -0.32151708
54.891125 57.070919 -0.16452996
55.015785 57.181709 -0.17018889
58.857422 57.189472 -0.24416921
59.25351 57.305584 -0.27447066
59.692883 57.164307 -0.2900658
60.296043 57.153084 -0.33093765
60.623859 57.449066 -0.37813327
61.248093 57.377831 -0.4256672
61.654999 57.279037 -0.4558295
63.209133 57.307854 -0.25748557
64.615082 57.080826 -0.40571755
65.262039 57.402077 -0.48965698
54.914734 57.792355 -0.20990208
58.790531 57.869808 -0.29282999
59.382732 57.636265 -0.30684733
59.907677 57.545219 -0.3329702
61.185917 57.58115 -0.4345842
61.550755 57.614037 -0.46979409
63.301079 57.658627 -0.27776563
64.117325 57.713409 -0.36571702
65.26786 57.670078 -0.4961912
50.023888 58.052601 -0.37817293
54.872349 58.244644 -0.23931502
58.470348 58.320938 -0.31198555
58.734272 58.146709 -0.31118622
59.263123 58.104752 -0.33561552
60.435997 58.433258 -0.060384452
61.325886 58.151997 -0.11543205
61.981075 58.219887 -0.17239177
62.497093 58.050823 -0.21252823
62.7794 58.145409 -0.24238524
63.358597 58.496078 -0.31011438
64.124008 58.164566 -0.3791427
65.026917 58.220444 -0.48098618
54.797791 58.703857 -0.26954973
58.352383 58.716015 -0.3368094
58.551067 58.501648 -0.32937443
59.824127 58.716179 -0.031857431
60.217907 58.719486 -0.057290774
60.580715 58.522217 -0.074039042
61.102509 58.889145 -0.12668742
62.704449 58.927597 -0.2622309
63.319405 58.505493 -0.30653572
64.29277 58.831097 -0.41652641
65.058273 58.664993 -0.49580848
46.38385 59.00494 -0.027834833
49.389366 59.485279 -0.46430749
54.718266 59.191563 -0.30181232
58.177227 59.276566 -0.37190431
62.070061 59.377502 -0.22271419
63.373169 59.156197 -0.3331936
63.720989 59.279224 -0.37137121
64.125366 59.14378 -0.40824038
46.757412 59.870457 -0.015880406
48.81694 59.66832 -0.49932599
49.217743 59.547035 -0.47501636
54.617538 59.769234 -0.34019285
58.635918 59.858192 -0.013295531
59.447647 59.893276 -0.057755709
59.707458 59.716362 -0.065725595
60.136688 59.863335 -0.098311543
63.731075 59.662682 -0.38477397
64.051186 59.519005 -0.41221339
49.236404 60.183876 -0.49992532
54.540047 60.232975 -0.37110865
63.396786 60.170357 -0.36956453
69.48716 61.198441 -0.48912585
69.53624 61.122757 -0.4953489
59.715782 63.985214 -0.24128765
60.666275 63.968925 -0.29936701
61.406822 63.981346 -0.35034698
62.231922 63.954765 -0.41033125
63.24411 63.778679 -0.48544043
44.677952 64.226028 -0.11418449
56.239544 64.241295 -0.094839156
56.687328 64.150337 -0.10644718
57.239204 64.085678 -0.12459888
57.712509 64.206757 -0.14901704
58.427109 64.092163 -0.17700261
58.808731 64.315788 -0.20531468
59.187389 64.16748 -0.21913393
59.722836 64.168068 -0.24930757
60.271694 64.208061 -0.28400388
60.71907 64.219627 -0.31306472
61.154137 64.214622 -0.34208566
61.705257 64.253021 -0.38265511
62.326485 64.134659 -0.42469984
62.847038 64.298347 -0.4721536
63.048477 64.203316 -0.48493564
64.483299 64.411499 -0.0043693185
77.425186 64.400375 -0.46292001
77.745598 64.287727 -0.49775004
58.342831 64.738861 -0.19948453
58.757351 64.55687 -0.21251804
59.422279 64.567581 -0.24848664
60.903759 64.60717 -0.34089994
61.484909 64.963142 -0.39505678
62.903202 64.75322 -0.49394065
64.57518 64.894646 -0.012645662
77.369057 64.523712 -0.4520613
45.340862 65.277901 -0.11098228
61.556973 65.021271 -0.4024716
64.75518 65.242622 -0.027795881
65.15596 65.234634 -0.060279451
65.698349 65.402969 -0.10550523
45.474705 65.540848 -0.1120221
45.632889 65.783752 -0.11271653
58.209969 65.662216 -0.23103356
65.809883 65.699951 -0.11500305
66.082634 65.852043 -0.13809782
45.885033 66.166512 -0.11448659
46.026752 66.440735 -0.11701673
65.209961 66.422295 -0.066436231
65.753166 66.324532 -0.11072034
66.377892 66.23896 -0.16329478
46.1852 66.762444 -0.12069887
57.900936 66.675461 -0.25817168
64.384483 66.740509 -0.0022047162
64.740326 66.794968 -0.03001548
67.207512 66.972534 -0.2347222
67.589584 66.942688 -0.26843899
46.412926 67.134048 -0.12488997
46.582001 67.388519 -0.12807761
57.970684 67.207977 -0.28317457
64.78215 67.122742 -0.034030378
67.443329 67.153763 -0.25523931
67.523132 67.153732 -0.26227421
76.64772 67.173073 -0.26986858
77.013824 67.043137 -0.30787462
46.82803 67.759369 -0.13353434
58.012894 67.682533 -0.30457884
67.318596 67.791222 -0.24385077
68.326431 67.936813 -0.3326245
76.55719 67.616386 -0.24310762
47.01923 68.07093 -0.13881058
67.334686 68.029007 -0.24513966
64.466995 68.97113 -0.015559971
67.947723 68.516777 -0.29817992
64.704605 69.29834 -0.034505825
67.986282 69.842316 -0.30073756
68.314606 69.890121 -0.32913667
65.960869 70.831284 -0.13546246
94.293243 70.85733 -0.26747978
94.729797 70.705971 -0.30793259
95.332352 70.744698 -0.34600443
95.638199 70.66317 -0.372641
96.174332 70.739433 -0.40355134
96.747833 70.913483 -0.42995632
65.866127 71.072243 -0.12869078
93.065491 71.428848 -0.14360172
93.733643 71.352364 -0.19415408
94.15464 71.204529 -0.23319262
50.72612 71.818367 -0.25648442
93.023224 71.654022 -0.12468064
93.601631 71.535576 -0.17213851
50.969852 72.054382 -0.2679078
51.250828 72.194664 -0.27709833
51.586731 72.44751 -0.29162982
92.868111 72.244591 -0.072175801
93.187729 72.03154 -0.10884508
51.871544 72.591148 -0.30201566
52.285633 72.77774 -0.31714633
52.612503 72.937225 -0.3301447
92.416687 72.631203 -0.014392734
92.621674 72.784111 -0.017302081
93.062164 72.74662 -0.049525559
52.85363 73.072655 -0.34084266
53.272064 73.261024 -0.35842538
53.740833 73.432388 -0.377671
54.100422 73.479034 -0.3898983
54.324921 73.511078 -0.39796656
76.981697 74.469994 -0.0070560575
77.303406 74.440826 -0.034739703
76.958656 74.59626 -0.00039499998
96.880409 76.979752 -0.0054999292
97.000488 76.862724 -0.021811724
79.342911 -11.057335 0.046711981
74.687988 -8.4580879 0.16651112
75.11586 -8.4414673 0.15393835
48.487831 9.7086983 0.00051146746
47.797123 10.267277 0.064434111
48.25005 10.112531 0.028949916
47.640308 10.668564 0.087602437
46.965137 11.185814 0.1503523
67.150246 13.469879 0.32658476
74.968048 13.791729 0.13747674
75.1194 13.792145 0.1350916
75.645218 14.496101 0.12913948
74.928749 14.777912 0.14032131
75.201538 14.654432 0.13594991
75.813354 14.864236 0.12803692
66.294518 15.304528 0.34795728
66.898514 15.274593 0.32798034
67.135681 15.284692 0.32031628
75.082977 15.32901 0.13952452
50.49556 16.059612 0.061028659
46.872875 17.727064 0.3662886
49.633583 17.70142 0.17010856
46.906464 18.106434 0.37624723
73.812447 19.889553 0.1717785
73.494492 20.025497 0.17623144
73.603203 20.064186 0.17501813
50.354774 20.680565 0.21357024
73.573067 20.790926 0.17832619
49.151535 21.388916 0.32060426
50.461193 21.467957 0.23089987
73.726273 21.176294 0.17833716
74.032333 21.382292 0.17619473
49.436363 21.735273 0.31140226
49.558594 21.788393 0.30440873
73.763657 21.538496 0.17968422
74.201042 21.722467 0.17646372
75.143723 21.883362 0.16997296
74.286743 22.193562 0.17847925
74.814751 22.225485 0.17462879
75.110748 22.136127 0.17197949
75.911278 22.452354 0.16999322
76.034912 22.457893 0.16949421
91.021072 22.010868 0.26372367
74.958969 22.574486 0.17612606
75.169922 22.696283 0.17579085
75.876854 22.881783 0.17384654
74.783424 23.420702 0.18355662
75.165817 23.30217 0.18060821
75.763382 23.317177 0.17817301
76.16378 23.286224 0.1765824
76.561707 23.180861 0.17449552
76.197838 23.869539 0.18223864
76.351601 24.171799 0.18516971
76.876259 24.069317 0.18355161
77.061714 24.246634 0.18558508
62.368526 24.845161 0.44834429
76.885658 24.983128 0.19438607
84.89785 24.950686 0.25177604
85.598206 24.98074 0.26157933
61.182686 25.495197 0.4952901
76.608963 25.333118 0.19848746
77.78463 25.218803 0.19918877
85.469437 25.408878 0.2703293
49.750267 25.908913 0.42435914
50.011028 25.890619 0.40462989
61.168365 25.630592 0.49516082
61.986629 25.88258 0.4584592
62.168987 25.872828 0.45103398
76.674866 25.802074 0.20453072
77.815147 25.590302 0.2045752
78.040268 25.638016 0.20609885
85.443222 25.666302 0.27638525
85.88884 25.764967 0.28531146
49.76432 26.150885 0.43132061
51.420223 26.419247 0.32037252
51.74818 26.407452 0.29693732
61.375885 26.218353 0.4826141
61.728184 26.318993 0.46691948
63.443398 26.016182 0.40156609
76.854149 26.04332 0.20809573
77.631203 26.420919 0.21620184
78.30629 26.087133 0.21419221
78.805649 26.294455 0.22042751
79.119476 26.477425 0.22561961
83.762077 26.146034 0.26549757
84.138252 26.387453 0.27623993
86.322754 26.113708 0.30102807
86.755302 26.231981 0.31107655
51.386784 26.558767 0.32719177
51.542622 26.52857 0.31521088
61.610306 26.508366 0.47085065
62.385044 26.590944 0.43860394
62.53907 26.573048 0.4326601
63.145992 26.74243 0.40901932
77.757843 26.805815 0.22283751
79.194939 26.689331 0.22993582
86.21273 26.953337 0.32231289
62.743256 27.095457 0.42229676
78.901962 27.426216 0.24117225
79.236198 27.299347 0.24158663
79.791862 27.459993 0.24963719
80.017937 27.359304 0.24977261
81.066467 27.364273 0.26079232
81.761086 27.299395 0.26737601
82.183571 27.063236 0.26708895
86.275475 27.055063 0.32621628
79.461807 27.574034 0.24883252
79.997589 27.527733 0.25300127
80.301346 27.595371 0.25750941
80.765129 27.51029 0.26063114
81.07914 27.635748 0.26692301
85.263008 27.970493 0.33531052
46.149281 28.943642 0.012259357
51.305172 28.831936 0.40654182
51.628822 28.682709 0.37820634
84.519508 28.671968 0.34285361
42.365047 29.14473 0.26745275
42.750038 29.120539 0.24092492
43.234039 29.096226 0.2080842
51.144424 29.002113 0.42386705
83.611168 29.487617 0.35091573
83.705147 29.747974 0.36020797
83.741295 30.179342 0.37381792
51.570976 30.762053 0.45064706
83.57283 30.742039 0.38810837
51.552467 31.18742 0.46621728
83.397583 31.421976 0.40643468
83.656242 31.002619 0.39793521
83.77951 31.718939 0.42393246
83.583702 32.380127 0.4424502
51.891453 32.639477 0.48966819
52.058052 32.583569 0.47523436
83.200378 32.975563 0.45519406
83.604507 32.60973 0.45092851
83.391647 33.205009 0.46765333
83.60746 33.478462 0.48251623
83.857208 33.562622 0.4913637
84.011932 33.646038 0.49809462
47.103676 34.756264 0.34429175
51.549011 37.02087 0.2130816
51.483486 37.871208 0.27438891
51.699173 37.690578 0.24854755
51.410542 38.362465 0.31226251
51.621994 38.255585 0.29151207
53.140762 38.320572 0.20008816
55.36047 38.383617 0.069034457
50.836552 38.875324 0.38421276
51.722042 38.743351 0.31812516
51.077557 39.352299 0.40125948
50.912834 39.660076 0.2312654
51.12933 39.638615 0.17829737
50.90612 40.183174 0.46984106
51.440903 40.432869 0.080070779
50.687599 40.679733 0.13324189
51.281845 40.86343 0.30695993
51.694435 40.877792 0.3019051
51.213184 41.218182 0.1623186
51.623528 41.096703 0.27433646
51.47723 41.730289 0.19930319
51.576294 41.737785 0.19609064
34.875168 42.469578 0.0071565509
49.615925 42.464409 0.33787751
50.384655 42.390118 0.30200338
50.757179 42.341431 0.28332144
51.236328 42.336605 0.26444039
51.656422 42.317131 0.24635831
88.370605 42.262444 0.025442481
94.243881 42.221294 0.015406191
32.962982 42.707779 0.03200224
33.07901 42.729935 0.03389442
34.285889 42.699699 0.029362142
34.83527 42.637295 0.022747973
43.434502 42.964821 0.035840213
49.928894 42.865517 0.36214095
50.271538 42.701584 0.31243753
50.664688 42.720219 0.14965753
88.249664 42.702099 0.057228178
88.75103 42.88007 0.069534719
90.175224 42.866226 0.066945732
35.416321 43.439354 0.095474601
43.422417 43.140392 0.052854069
49.513092 43.238235 0.039472938
50.203384 43.228786 0.12539841
50.710361 43.219807 0.17380185
51.055206 43.028679 0.0069205761
89.318748 43.432285 0.10941643
89.783936 43.201576 0.091953278
35.768597 43.667141 0.11570811
49.730194 43.966396 0.46740127
50.28981 43.62682 0.38508147
50.675293 43.892071 0.22489807
89.384735 43.583885 0.12057149
89.716125 43.749619 0.13258398
90.904587 43.81768 0.13664395
36.48653 44.197556 0.16271359
49.449547 44.455021 0.16333589
49.73172 44.228622 0.3127957
50.259964 44.246368 0.47253051
50.71431 44.236691 0.15812087
89.901634 44.377647 0.17954749
90.894501 44.099567 0.15780944
93.23175 44.314823 0.17236942
49.49086 44.506584 0.16828755
49.56876 44.625134 0.17969638
50.59684 44.621506 0.17575352
89.845947 44.78936 0.21085811
89.830208 45.135983 0.23738223
90.185905 45.377834 0.25580999
40.69302 45.967823 0.3152824
44.448303 45.543953 0.27484462
44.655369 45.802155 0.29761669
46.976917 45.781162 0.29336905
51.350342 45.910244 0.0197633
51.570251 45.814079 0.016837921
90.322914 45.761745 0.28554362
90.501968 45.67688 0.27881974
32.351372 46.205368 0.34048915
44.676552 46.012207 0.3161602
46.449745 46.274139 0.33770895
46.924118 46.392212 0.34767491
50.895443 46.36879 0.050612032
51.250801 46.148952 0.040681399
90.327744 46.233925 0.32254386
44.161942 46.984818 0.40020633
50.907822 46.648964 0.077722594
51.040874 46.538853 0.071864501
90.471069 46.606476 0.35191596
90.726685 46.869663 0.37275839
32.412945 47.268742 0.42922649
41.871712 47.156651 0.41571248
47.051998 47.410656 0.4344669
51.646618 47.240906 0.41783246
90.725883 47.254284 0.40359885
32.4277 47.639416 0.45965275
51.357349 47.857155 0.46927172
90.773285 47.639462 0.4346993
92.297729 47.862736 0.4521957
95.75325 47.997204 0.46168464
50.396904 48.488075 0.21492273
50.99514 48.138256 0.49193966
51.940765 48.307091 0.0035872459
93.331139 48.221951 0.48112732
95.904716 48.254288 0.48267853
44.494724 48.60149 0.020395577
48.257717 48.621216 0.15141875
48.748016 48.739437 0.17690672
50.359707 48.548847 0.21816319
51.341896 48.903 0.0032098442
48.272572 49.164108 0.19140548
48.723896 49.290192 0.21542485
51.384125 49.237476 0.02663262
41.686466 49.786232 0.011843294
48.076 49.911846 0.2354551
49.3745 49.870453 0.27545235
49.545124 49.731419 0.27219531
51.364861 49.757824 0.054163978
51.727272 49.89463 0.084860921
41.717941 50.303093 0.049267709
48.751434 50.416462 0.28891969
51.297611 50.28265 0.074995242
51.533249 50.495972 0.099034011
41.338722 50.701153 0.063679516
45.771496 50.978634 0.22746295
49.748955 50.97224 0.35129565
51.256935 50.78804 0.093196817
51.538818 50.523438 0.10048449
38.762321 51.302364 0.017931312
45.897751 51.141712 0.24131152
46.019089 51.305107 0.25492173
49.813667 51.20752 0.36539936
51.213047 51.240498 0.10642507
37.852093 51.651619 0.010810673
38.968468 51.520813 0.039232671
49.699162 51.809021 0.39166844
