# .PCD v0.7 - Point Cloud Data file format
VERSION 0.7
FIELDS x y z
SIZE 4 4 4
TYPE F F F
COUNT 1 1 1
WIDTH 1610
HEIGHT 1
VIEWPOINT 0 0 0 1 0 0 0
POINTS 1610
DATA ascii
49.732876 121.35191 2.5977945
50.1339 121.14072 2.5739064
50.737682 121.12081 2.5446546
53.238857 -3.967453 3.4704764
52.422962 -2.3014221 3.4441223
52.902229 -2.2023468 3.4091682
51.132805 -1.2881279 3.4816051
47.814999 8.987484 3.2576239
75.894806 13.790859 3.4368534
75.883118 14.466793 3.3924036
75.984962 14.585026 3.3865335
80.553345 15.691769 3.4363122
76.016998 16.363705 3.2729185
77.103157 16.66885 3.2788408
74.739983 17.626324 3.166492
75.28418 17.739563 3.1701925
75.529854 17.846062 3.1687236
75.501709 18.175926 3.1473777
79.644058 18.854687 3.2294123
76.506805 19.318272 3.1027069
78.366478 19.311829 3.1598644
74.890564 19.547691 3.047658
75.825417 19.582449 3.0684738
76.844933 19.999819 3.0722575
77.266205 19.686165 3.1032901
77.531097 19.628849 3.1148202
76.205795 20.196522 3.042006
76.275169 20.680149 3.0155046
76.858116 20.927368 3.0191154
76.960297 21.002304 3.0181246
77.794769 21.121267 3.0396068
77.913956 21.612701 3.0170357
78.16127 21.92087 3.0096681
78.650993 21.779087 3.0359349
50.913662 24.907806 3.2809765
51.095299 24.846603 3.269588
88.964005 24.837799 3.4759512
83.073135 25.496937 3.0846283
83.983574 25.324387 3.1441665
62.57391 25.915266 3.4806368
86.44664 25.908855 3.2794697
61.962971 26.425983 3.4323015
62.872162 26.021105 3.464838
82.595726 26.158886 3.032922
83.236504 26.238432 3.0679367
86.835114 26.099411 3.2997482
59.666031 26.787081 3.4504762
61.134987 26.846981 3.4011025
61.737972 26.678894 3.4075963
62.111134 26.609207 3.408942
83.83786 26.781029 3.086611
86.31768 26.90625 3.2435093
60.233894 27.426296 3.3580575
60.716385 27.23435 3.3668234
61.404797 27.075974 3.3688381
82.741005 27.146889 3.0072212
83.267662 27.060007 3.0422843
83.832336 27.044605 3.0779133
84.385284 27.308138 3.1050763
84.633804 27.340904 3.1201942
85.283142 27.329355 3.1631649
86.90123 27.274719 3.273844
87.019524 27.34996 3.2801955
59.883564 27.526331 3.3572371
60.47855 27.508692 3.3414774
83.230911 27.85277 3.0148978
83.850609 27.537413 3.0639155
85.835381 27.742794 3.18923
86.09182 27.77339 3.2059653
87.769623 27.778042 3.3232079
85.270088 28.943142 3.1209509
85.331764 29.289831 3.1173418
84.602943 30.414152 3.0411134
84.680237 30.732849 3.0402193
85.337608 30.909178 3.0849717
85.580269 30.95673 3.1021438
84.820679 31.072983 3.0438962
85.206139 31.453363 3.0657966
85.657562 31.343349 3.1015136
85.772148 31.787838 3.1035371
86.884453 31.750534 3.1899312
90.628105 31.988152 3.4897785
86.101349 32.001007 3.1258903
86.952797 32.017475 3.1921449
87.216217 32.062653 3.21244
87.656837 32.144283 3.2466609
90.097305 32.455379 3.4437721
38.385391 32.692101 3.4713349
89.78746 32.931519 3.4163063
89.8582 33.116005 3.4217989
90.337158 33.092491 3.4622834
84.995232 34.397774 3.0135078
85.110855 34.123596 3.0250163
52.274239 34.644878 3.0362196
84.883636 34.600342 3.002974
85.248405 34.708473 3.0321012
85.512489 34.881355 3.0528996
106.65903 34.889214 3.1458337
50.470375 35.142834 3.1947727
51.34383 35.318752 3.0688829
52.880505 35.482666 3.4830725
53.053211 35.444286 3.4692459
87.683525 35.181744 3.2354121
88.145615 35.273716 3.2753026
38.520157 35.735954 3.4284041
50.484726 35.66301 3.1394286
50.759502 35.595482 3.1114955
51.203957 35.795906 3.035326
52.358406 35.93927 3.4787283
52.728897 35.904976 3.4396307
53.153008 35.84227 3.400074
87.788177 35.734707 3.245435
88.309593 35.938896 3.2917728
50.676258 36.426918 3.0365562
52.389202 36.264317 3.4286213
52.777527 36.073669 3.409373
87.759552 36.018375 3.2438743
88.433243 36.213821 3.3041334
88.562157 36.150139 3.3151364
89.233711 36.223694 3.3753035
88.963318 36.825165 3.3559582
89.046211 36.583885 3.3613133
88.944 37.034897 3.3561747
89.301506 37.272121 3.3911672
89.809967 37.447815 3.4396806
89.853729 37.757557 3.4478927
90.029755 38.01683 3.4679303
47.858952 39.161118 3.2093771
106.67001 39.244965 3.3252063
48.373466 40.234085 3.0371785
48.213943 40.836357 3.0198298
49.849007 40.764793 3.2249613
50.17802 40.964397 3.1421366
49.919949 41.384308 3.1419735
50.459953 41.299355 3.0523713
48.350128 41.668987 3.4232593
48.755669 41.759308 3.3311856
49.017078 41.894646 3.2643557
104.21155 41.834412 3.2861018
47.980659 42.151787 3.4568861
48.150597 42.264381 3.4103363
48.318756 42.822563 3.3252621
48.754528 42.905281 3.223788
49.105515 42.911999 3.1481564
49.675552 42.575752 3.4997303
89.087845 42.79213 3.4926763
106.854 42.510204 3.4996874
47.421272 43.424843 3.4796083
47.969738 43.442028 3.3525481
48.243484 43.239979 3.3070128
49.306969 43.344467 3.0658307
49.704739 43.045753 3.0105083
44.841141 43.969212 3.0091407
49.199261 43.741943 3.0541136
50.852623 43.750416 3.0834429
44.839355 44.147209 3.0082321
48.978786 44.041901 3.0780292
50.391769 44.407379 3.1078632
50.756763 44.145351 3.0545816
46.741035 44.797791 3.0991724
49.082542 44.56044 3.4158998
50.335693 44.677685 3.090009
50.516144 44.868122 3.0245209
48.355545 45.41399 3.129679
48.70435 45.408005 3.0455978
49.797363 45.154652 3.1738834
50.37149 45.186562 3.0250316
48.765633 45.884632 3.0035281
49.853912 45.541199 3.1215253
50.044907 45.768085 3.05035
103.4864 45.925373 3.4641392
103.78137 45.756794 3.4742548
49.263088 46.27816 3.2190669
49.910057 46.403194 3.0317497
103.72369 46.059128 3.4886415
49.255379 46.55397 3.201848
49.726364 46.50576 3.0740478
99.963989 47.092297 3.2929878
100.04801 47.338516 3.3143373
47.568874 48.646042 3.2516642
49.445793 51.19614 3.1007187
48.387001 51.593849 3.473366
48.857094 51.864006 3.3418071
48.810085 52.281281 3.3410215
47.922977 52.830231 3.033618
48.30814 52.747112 3.188149
48.697762 52.717575 3.3010802
47.71957 53.333172 3.1377022
48.418736 53.242664 3.2888737
48.68906 53.071259 3.3549829
50.117111 53.355946 3.1001294
47.373856 53.759262 3.2718017
47.610893 53.75692 3.213325
48.837582 53.782425 3.2386882
49.365852 53.927296 3.4233418
49.592075 53.757431 3.3257847
91.734718 53.897442 3.2128015
44.243046 54.493271 3.1584406
47.578304 54.000237 3.2506003
49.399628 54.165474 3.4504731
49.613331 54.166832 3.383513
91.68647 54.191784 3.2342865
44.21077 54.736675 3.1893623
45.382072 54.760761 3.2089782
46.317245 54.80101 3.2425861
46.919678 54.906246 3.1307533
47.281364 54.81348 3.3196275
47.51894 54.815823 3.3716998
91.788979 54.920135 3.3041046
92.314125 54.722252 3.32335
39.111187 55.17664 3.4628949
42.221073 55.32946 3.0442438
42.570366 55.458794 3.0083525
44.436272 55.107689 3.1897216
45.064243 55.377926 3.1111889
46.650284 55.029022 3.201699
47.344543 55.218033 3.1178763
47.559017 55.333744 3.43593
91.401459 55.424065 3.3217688
91.783401 55.288658 3.3361626
92.129189 55.146515 3.3475513
39.431332 55.698719 3.467411
42.828331 55.771152 3.0036302
45.910126 55.849941 3.0212941
46.221836 55.872017 3.3987765
47.404671 55.623077 3.222096
49.140781 55.628185 3.4482965
49.641903 55.732788 3.3360054
90.465111 55.709961 3.2828302
90.510117 55.791527 3.2933073
91.078705 55.508633 3.3070173
43.120457 56.497536 3.0378425
45.385445 56.371525 3.1729813
45.870098 56.274551 3.0794404
46.650295 56.270115 3.3668821
47.382538 56.128708 3.2002585
47.635063 56.229744 3.1645536
49.478279 56.321533 3.4920557
90.269066 56.173157 3.3117423
43.079052 56.677372 3.0623705
47.431217 56.683216 3.2720563
47.547863 56.86488 3.2763774
90.847778 56.661545 3.3970287
47.482059 57.07576 3.3215513
47.527157 57.009029 3.3025024
48.88522 57.42474 3.4855847
91.11171 57.246372 3.4706094
48.242458 57.784588 3.2908854
47.912292 58.444809 3.4635534
48.150475 58.104897 3.361824
47.118759 58.955875 3.2428825
47.824722 58.558357 3.4990656
48.305626 58.571507 3.4138694
45.879925 59.215492 3.4736838
46.208363 59.3438 3.4412308
47.081429 59.136402 3.2755878
37.53083 59.979252 3.4103954
37.543388 60.259277 3.4362004
37.543854 60.545998 3.4639912
31.848618 65.320908 3.4922357
32.17664 65.311737 3.4690695
32.590363 65.370483 3.4457858
32.603306 65.755226 3.4773185
32.66547 66.009552 3.4945509
37.424805 67.729141 3.3213775
32.34935 74.205856 3.04406
32.602535 74.208206 3.0341291
22.841324 74.85347 3.4562359
23.180906 74.884529 3.4452786
23.73135 74.853729 3.4221597
24.253531 74.834732 3.4008634
24.720497 74.762451 3.3781753
26.98155 75.452675 3.335479
27.218124 75.436714 3.3252168
27.655569 75.428177 3.3075724
28.625853 75.389038 3.2670164
29.110899 75.387329 3.2478306
29.538368 75.54393 3.241019
36.298462 78.941422 3.1791458
36.945522 78.875793 3.1478014
39.52544 78.805145 3.0332274
39.339077 79.090546 3.0586398
42.459919 80.956871 3.0338626
37.92189 82.660179 3.3369238
44.345886 85.061508 3.1919346
44.670334 85.28109 3.1898174
40.711906 85.695412 3.3959644
41.240726 85.805115 3.378598
41.564178 85.930557 3.3713946
39.755383 86.026184 3.458777
41.171913 86.166748 3.4032953
42.964645 86.322525 3.3305707
43.043392 86.475616 3.3360181
41.677818 86.645668 3.4087992
43.330109 86.632126 3.3320398
44.353554 86.878448 3.298996
44.542423 86.932365 3.2933424
43.297264 87.247742 3.3700225
44.585411 87.399002 3.3188672
41.645302 87.904846 3.4851708
44.757328 87.508232 3.3172374
47.274239 88.035637 3.2285023
47.959335 88.260391 3.2085748
48.249939 88.168579 3.1890965
48.719982 88.249939 3.1709633
49.027283 88.274445 3.157383
48.491661 88.843002 3.2167795
45.900318 89.193901 3.3623178
46.771442 89.119858 3.3162634
47.242973 89.139389 3.2946992
45.833878 90.390396 3.4357677
76.479744 90.945541 3.3331909
76.607559 90.860764 3.3196852
75.831848 91.338135 3.3983994
76.21595 91.099335 3.3591614
75.385193 91.810471 3.4619524
75.547729 91.614197 3.4365754
77.128929 91.542816 3.3584864
51.057102 95.329849 3.4678066
51.513741 95.392639 3.4484394
52.118202 95.448212 3.421072
92.418587 95.3564 3.041369
92.722221 95.280701 3.0219288
93.033447 95.212616 3.0028746
51.177925 95.580704 3.4763162
51.717503 95.620224 3.4513726
52.547268 95.773849 3.4181859
92.353241 95.758781 3.0800271
52.363132 96.038834 3.4429545
52.6768 96.028427 3.4263771
92.190887 96.027145 3.1108065
92.660675 98.393929 3.3027723
92.512314 98.705414 3.3369474
92.469727 99.333984 3.3951068
92.556519 99.105881 3.3709729
94.890709 100.47257 3.3948116
94.672981 100.52359 3.4085503
104.71622 101.48946 3.0786095
27.692926 108.68643 3.1127019
28.115898 108.84093 3.1049855
31.317003 108.75504 3.0066235
26.734228 109.08601 3.1514711
26.72728 113.12226 3.2678363
27.029554 113.04881 3.2568369
54.200878 -12.54459 3.8135481
54.747128 -9.9858246 3.6618104
53.909111 -6.01157 3.5251503
54.199402 -6.1259251 3.5131748
53.624084 -5.7517414 3.5302165
49.189201 -5.1351776 3.791888
53.343575 -5.4527855 3.5333509
47.733002 -4.7934093 3.8808975
51.831314 -4.5647697 3.5872912
47.516876 -4.2920494 3.8741426
51.689629 -4.0007286 3.5703263
53.026165 -4.3521233 3.5015941
51.315613 -3.8450966 3.5876389
51.511871 -3.8298416 3.574023
46.910419 -2.2552719 3.8280284
50.18681 -2.1522942 3.5857046
48.512512 -1.8305054 3.6896157
50.026432 -1.9292297 3.5865512
49.194817 -1.1507339 3.609494
50.857944 -1.2915764 3.5002637
49.14669 -0.18527222 3.5689678
49.027199 0.22608566 3.5588751
76.924202 7.9683151 3.8411207
76.655365 8.1628036 3.8247681
75.932777 10.54665 3.6540828
76.075211 10.611603 3.6514697
76.157036 11.169923 3.614979
77.021973 11.151962 3.6291142
76.31134 11.554085 3.5914536
58.189255 23.326736 3.9155064
57.884502 23.911242 3.8615611
62.920986 24.949572 3.5851712
63.595951 24.747358 3.6005516
76.996948 24.759764 3.9941518
63.280113 25.264313 3.5455368
58.372669 25.871401 3.6088428
60.993954 25.74754 3.5310767
62.487396 25.656277 3.5112395
58.743816 26.298044 3.5428569
59.276958 26.276445 3.5241234
77.762939 26.270466 3.9275963
78.198242 26.464668 3.9434302
79.212341 26.935623 3.9841056
79.202209 27.373333 3.9537158
79.418198 27.640755 3.9525537
79.646484 27.814365 3.9591761
80.036018 27.729504 3.99562
79.928696 28.006866 3.9693601
52.604279 29.940113 3.5290096
94.810593 30.815929 3.8442492
92.187218 31.39135 3.6218815
52.756329 32.302147 3.9622514
52.560413 32.662987 3.9302835
53.145233 34.776642 3.5569348
51.085121 35.177647 3.7495549
51.867035 35.332649 3.6260047
52.883106 35.261185 3.5149949
51.454006 35.932983 3.5951347
51.731625 35.854492 3.5697758
92.986267 36.923805 3.7256532
91.502579 37.678059 3.5995798
90.448013 38.379246 3.5128186
90.553406 38.202549 3.5196662
91.813644 38.313881 3.6399984
90.478844 38.500416 3.5178344
90.52034 38.617249 3.5238426
91.19632 38.958454 3.5943666
91.707291 38.560936 3.6347485
91.407341 39.08107 3.6169963
91.828506 39.125641 3.6581373
92.054955 39.243889 3.6824503
93.070084 40.194778 3.8047009
89.977127 41.679008 3.5450969
90.062637 41.839134 3.5583377
48.637222 42.273731 3.7770958
89.916061 42.068386 3.551039
46.631413 42.683033 3.7155631
89.16011 42.950523 3.5052283
89.603622 42.942585 3.5490754
43.904606 43.06123 3.7673063
47.56501 43.380722 3.9225588
48.959328 43.41943 3.5669918
49.249023 43.16885 3.5257425
89.446396 43.462982 3.5520852
89.692177 43.159515 3.5656092
92.880219 43.096031 3.8828306
48.28252 43.620399 3.7146041
48.799286 43.931122 3.5517285
89.485939 43.571774 3.5601034
90.000809 43.621887 3.6136823
92.623672 44.253693 3.904834
93.059731 44.484875 3.9594469
92.834106 44.723015 3.9472532
93.217331 44.841221 3.9918776
47.387848 45.1703 3.8203945
47.680813 45.125393 3.7420979
48.079342 45.49926 3.6042721
106.85866 45.096367 3.6463981
48.192005 45.623268 3.5640278
106.95335 45.727585 3.6911159
44.084602 46.46452 3.6828954
106.93988 46.077381 3.7117522
103.80888 46.89143 3.5463018
103.56913 47.233276 3.5515039
103.67583 47.715481 3.5901401
107.15125 47.919941 3.8450449
103.50166 48.040585 3.5994263
105.2965 48.230976 3.7368882
103.36156 48.872147 3.6456728
103.58208 48.62001 3.6438594
103.4342 49.100815 3.6664591
104.42255 49.367607 3.753881
104.48535 49.614994 3.7756224
104.77888 49.766766 3.8068385
107.20921 49.828716 3.9808354
107.20312 50.011181 3.9934759
48.262344 51.637943 3.517329
48.264191 52.767918 3.6241043
48.562256 52.91161 3.543823
47.581047 53.486698 3.5564866
48.654366 53.301865 3.5622931
45.60931 53.861542 3.7192764
47.367157 53.79372 3.655514
47.584503 53.749329 3.5883491
48.425758 53.590401 3.674171
43.592056 54.353935 3.7620969
47.47543 54.039978 3.6568844
47.757607 54.397755 3.6271224
49.356693 54.390579 3.5006802
43.444393 54.833447 3.8460305
43.756588 54.913242 3.7897034
45.721443 54.725731 3.7962859
46.209061 54.911606 3.7018056
47.982407 54.761406 3.6182885
48.029968 54.721439 3.5991275
48.982346 54.695164 3.6691313
49.30785 54.834881 3.59342
49.574409 54.981407 3.5382481
95.308334 54.773056 3.5357561
43.798634 55.000641 3.7909453
45.249382 55.112831 3.8454607
46.484306 55.226624 3.6781173
46.621189 55.242241 3.6473508
47.483196 55.111618 3.8100429
48.417252 55.099998 3.9151416
49.402309 55.21225 3.6345232
49.575611 55.241608 3.5877368
45.496307 55.521252 3.5015407
46.859726 55.717785 3.6591289
47.363552 55.616764 3.5246122
47.532963 55.729431 3.6331387
49.733402 55.748749 3.6431439
50.023376 55.970108 3.6053667
42.652374 56.402531 3.6415124
43.693069 56.046612 3.9393394
46.015488 56.379181 3.5097351
46.607288 56.318504 3.8105438
47.74308 56.297089 3.5428479
48.13998 56.083004 3.7959032
49.415127 56.388149 3.6094623
49.618526 56.012104 3.7320642
50.024338 56.038555 3.6201048
43.249252 56.564777 3.5583701
46.358116 56.762619 3.9391956
46.911701 56.571484 3.7797842
47.18676 56.550835 3.7127299
47.773746 56.64716 3.5938623
49.390156 56.657841 3.6611633
49.584358 56.732765 3.9018567
39.582809 57.173744 3.5924034
46.597912 57.193768 3.6007781
47.376541 57.118961 3.7648966
47.743282 57.217983 3.6997757
48.215092 57.145317 3.5812442
48.805443 57.318501 3.8653069
49.469505 57.006771 3.9975562
49.55574 57.028229 3.9785089
91.284729 57.453217 3.5023148
91.875641 57.058094 3.5048966
39.035118 57.801834 3.7323275
47.942181 57.71217 3.7449613
48.034077 57.787655 3.7389019
48.749241 57.617741 3.9422798
91.290482 57.75547 3.5320721
94.299728 57.551414 3.7176933
46.930092 58.457951 3.648057
47.683548 58.418507 3.9339757
48.24778 58.358444 3.8018231
91.228676 58.168324 3.5684493
91.512009 58.468044 3.6174219
47.697662 58.684368 3.6896009
48.298622 58.76926 3.8725696
91.304382 58.858501 3.6427143
91.588799 58.668907 3.6427426
38.306198 59.123253 3.9720225
40.274002 59.154129 3.7106299
44.494057 59.319336 3.7078862
44.70892 59.432564 3.6896768
45.779381 59.096985 3.9695024
47.260101 59.421764 3.7515335
91.287315 59.162109 3.6725132
32.165886 59.932178 3.9553282
44.86359 59.640717 3.6948721
47.287987 59.551323 3.7692773
92.177078 59.795696 3.7974257
40.347652 60.350716 3.8374214
92.325294 60.150757 3.8443336
40.375237 60.822826 3.8891892
40.40023 61.231693 3.9346006
40.422104 61.6502 3.9821434
37.729305 63.400974 3.731952
37.852901 64.554794 3.8399434
37.720856 65.190445 3.9197557
110.36699 65.218979 3.6435909
37.636841 65.656746 3.9773493
38.219036 65.745583 3.9311602
38.644295 65.936424 3.9112301
110.14488 65.947983 3.7079556
38.945473 66.01873 3.8916132
39.24403 66.138672 3.8765023
39.740356 66.298012 3.8473747
40.231075 66.402931 3.8131857
40.56813 66.422318 3.7840815
114.30036 66.423164 3.8871467
40.667393 66.752014 3.8115675
110.3881 66.702896 3.7904935
114.22894 66.616074 3.903744
40.69886 67.25647 3.8650188
110.44802 67.214561 3.8435574
40.727295 67.725029 3.9150696
110.32793 67.675949 3.8862803
40.756958 68.263123 3.9731686
108.41997 68.280762 3.8891857
109.18723 68.219307 3.9063468
109.83788 68.123634 3.9165759
110.45084 68.010269 3.9239578
108.42698 68.765495 3.9394481
108.46049 69.162575 3.9816873
32.259968 69.836311 3.8481281
32.654846 69.813972 3.8197465
32.875832 70.370529 3.8529379
94.77002 70.905457 3.7896538
95.635117 70.926712 3.8140252
96.699219 70.775627 3.8241434
97.200928 70.760414 3.8355379
94.317001 71.320831 3.8267553
94.762596 71.148849 3.8177147
95.531845 71.04187 3.8246779
96.783058 71.155548 3.8697803
37.936035 71.792091 3.6433911
94.034363 71.74868 3.8701007
94.052986 72.258537 3.9308672
93.706741 72.647118 3.9690897
38.291977 73.91803 3.808867
19.443192 74.820938 3.5833275
21.027519 74.996437 3.5348406
37.913902 74.762947 3.9083624
38.221355 74.802017 3.8921535
20.40345 75.035942 3.5611742
20.710728 75.020348 3.5484679
38.299252 75.203499 3.9230049
43.998783 75.312225 3.5754128
44.222233 75.396759 3.5693974
38.335754 75.753448 3.9698288
40.359329 75.926773 3.8573136
40.637573 75.800117 3.8284245
44.437 75.596573 3.5744441
44.73114 75.73967 3.56954
45.139721 75.763145 3.5468233
38.974236 76.42115 3.98912
39.402401 76.099091 3.9331312
39.772934 76.127289 3.9122801
40.171959 76.014153 3.876965
40.751045 76.176483 3.8552365
41.252045 76.345352 3.8391595
41.697346 76.310509 3.8082638
42.065998 76.203384 3.7756557
45.214081 76.360138 3.596859
45.550842 76.433418 3.5832071
40.806576 76.551865 3.8856301
42.253582 76.964188 3.8330023
42.993462 76.902328 3.7817764
45.680756 76.607887 3.5913417
42.329147 77.028442 3.834166
42.536865 77.085464 3.8265247
45.380798 77.48127 3.6893713
41.39637 77.786537 3.9606144
45.461952 77.542519 3.6901
46.200741 77.963043 3.6844268
46.627945 77.968384 3.6594863
47.014503 77.916733 3.6318071
42.125233 78.11702 3.9455931
45.785805 78.043915 3.7166359
46.356613 78.107742 3.6884272
46.848362 78.163177 3.6643193
47.094452 78.407928 3.6722736
47.095634 79.269356 3.7515182
47.40065 81.446625 3.9343758
47.503452 81.484741 3.9318986
46.840267 81.575027 3.9789968
47.52541 82.140038 3.9911227
49.970497 82.417656 3.8761232
50.18718 82.460129 3.8677506
49.102009 82.944679 3.9745302
50.359791 82.728043 3.8828073
49.252945 83.027039 3.9735196
49.911137 83.674759 3.9960527
39.142509 86.626205 3.5221772
39.255424 87.944809 3.5960851
37.299324 89.253998 3.7621255
42.054295 89.281967 3.5480771
44.884949 91.068756 3.5208693
45.04586 91.035446 3.5112581
45.670364 91.46109 3.5064495
68.17186 91.395782 3.7617474
45.841564 91.651703 3.5094302
67.887405 91.708023 3.8043694
68.684822 91.618889 3.7577136
69.128754 91.841095 3.7569766
39.996899 92.328705 3.8236322
67.634407 92.184471 3.8607299
69.447723 92.162796 3.7714529
52.499294 99.44133 3.6337042
52.83445 99.449799 3.6170673
52.660149 99.51741 3.6299069
51.419693 100.02017 3.7222509
54.883823 101.84003 3.6501424
55.147766 101.81406 3.6349092
54.686615 102.28988 3.6864858
56.101566 102.18372 3.606555
53.098984 104.75006 3.9112816
53.262718 105.05511 3.9205697
100.23603 106.57779 3.7160063
46.431747 -9.3355446 4.1823325
45.907494 -5.3786354 4.0444388
74.389275 17.892435 4.4794145
74.73687 17.943193 4.4867406
75.912369 19.311363 4.4054213
76.611183 20.377787 4.3417988
75.959145 20.958206 4.2591286
76.640129 20.559729 4.3271928
74.608002 21.315975 4.1658893
76.715302 21.380022 4.2595072
73.162117 21.9893 4.0447783
73.824585 21.73172 4.0949574
74.891113 21.66877 4.1461735
75.033562 21.794582 4.1412601
77.281303 21.540688 4.275486
73.265709 22.158224 4.0329108
76.299164 23.431301 4.0624447
79.39856 23.27655 4.2622833
79.687202 23.222294 4.2854815
76.393845 23.606123 4.0530276
76.712051 23.76627 4.0578313
76.993141 24.181408 4.0403271
77.23436 24.247961 4.0494814
77.189255 24.693859 4.01121
77.662125 24.742378 4.0370445
62.084976 25.43298 4.494895
78.644867 25.283598 4.060925
61.348091 25.69379 4.4669909
61.614174 25.755224 4.4532909
62.295536 25.566942 4.4726644
62.524185 25.605246 4.4648409
79.225037 25.956459 4.0531588
79.726746 25.829647 4.0987148
83.391403 25.500414 4.4088154
78.794655 26.112953 4.0110626
79.62336 26.220617 4.0639677
82.346542 26.108965 4.2850122
61.685299 26.63131 4.3213067
81.06002 26.996988 4.1245713
81.691231 26.51712 4.2059751
82.370186 26.787535 4.2457457
82.526497 26.895403 4.2525406
80.028038 27.412224 4.0153728
82.775345 27.277744 4.2517176
83.778778 27.475445 4.3291225
85.285316 27.222994 4.4797282
83.13015 27.654375 4.261538
83.89904 27.784307 4.3235002
85.350662 27.933783 4.4505301
85.563202 28.079462 4.4637289
85.81752 28.594812 4.4643321
86.692482 30.085995 4.4898062
86.943947 30.596367 4.4970822
87.007011 30.713654 4.499548
52.79163 31.328802 4.1022744
53.094505 31.389305 4.0624652
87.109154 31.24291 4.4924521
51.773193 34.396507 4.4312553
51.41502 34.883003 4.3954391
51.599133 34.714733 4.3990979
53.038929 34.988163 4.1637683
52.484871 35.199738 4.1944561
52.750835 35.217884 4.1576118
53.028816 35.193367 4.1278253
52.340229 35.647129 4.1336231
52.528301 35.671326 4.104598
51.675972 36.111958 4.1439114
97.746841 37.356571 4.1843905
100.02966 37.043705 4.3965073
97.774872 37.583176 4.1924925
97.735535 38.215462 4.2046442
96.98513 40.195862 4.1890602
94.750473 42.922642 4.0644321
94.603516 43.229942 4.0621085
96.084572 44.421535 4.2656059
93.973457 44.945946 4.0742316
94.944397 44.900558 4.1716046
94.453087 45.26263 4.1388178
95.062134 45.899326 4.2339468
95.164795 46.173481 4.2590876
107.2063 50.27132 4.0124755
107.24628 50.692486 4.0460248
107.27622 51.221386 4.0873466
107.29 51.733387 4.1269403
107.32364 52.251675 4.1690602
107.3533 52.76778 4.2113891
107.35999 53.292645 4.2534714
107.42316 53.814636 4.2999415
107.44061 54.250084 4.3367386
43.82692 54.94278 4.2871442
45.16291 54.913628 4.4261103
46.360699 54.950035 4.0965629
107.46239 54.596184 4.3668814
43.711029 55.193314 4.3471336
45.739353 55.309135 4.3223205
46.427349 55.279541 4.1275806
46.888603 55.397976 4.0184999
48.027679 55.126999 4.0402894
44.587364 55.886494 4.2270923
45.153816 55.512882 4.03865
46.201134 55.882523 4.284337
46.921894 55.849209 4.0826163
47.004543 55.768509 4.0467019
45.346905 56.104088 4.0761948
46.408298 56.493893 4.3308911
46.747719 56.212364 4.1910548
47.022148 56.096474 4.0972118
39.151955 56.965862 4.3065643
45.481926 56.698502 4.1339102
46.221493 56.691967 4.4155874
46.918694 56.551411 4.2045975
39.008049 57.073151 4.3433204
46.960976 57.470009 4.3646245
47.189972 57.205513 4.254384
47.826649 57.121284 4.0734363
43.871872 57.765312 4.1351776
44.185905 57.568787 4.0443625
48.648178 57.722599 4.1230612
43.453213 58.239197 4.2870369
43.504959 58.099945 4.2565017
44.198772 58.17667 4.1304631
48.312538 58.300701 4.1964278
48.69664 58.193993 4.4948196
47.315323 58.572311 4.0426464
47.576736 58.724823 4.0158405
48.247456 58.81881 4.3268428
37.966576 59.13924 4.0196972
44.749504 59.122044 4.1690888
45.309612 59.1917 4.0736771
48.353466 59.000206 4.3425694
40.436756 61.919262 4.0129781
33.50832 62.448441 4.0573449
40.459938 62.272171 4.0533295
33.517796 62.591911 4.0704193
40.485855 62.751171 4.1094537
40.512196 63.242321 4.1678171
40.543705 63.746082 4.2279096
40.571075 64.261902 4.290853
40.603256 64.749893 4.350338
40.628342 65.252319 4.4132886
40.656792 65.718491 4.4716511
40.780815 68.767982 4.0283585
40.81089 69.221771 4.0774589
108.48267 69.378822 4.0049095
40.838097 69.754013 4.1360765
108.48444 69.57872 4.0258732
108.50247 69.885002 4.0585675
40.871208 70.293518 4.1953096
108.52357 70.289253 4.1018295
40.894066 70.796158 4.2514777
108.55135 70.792931 4.1561031
40.927616 71.233559 4.299366
108.58141 71.324722 4.2137814
40.948502 71.702896 4.3522816
108.60413 71.732849 4.2583008
40.979351 72.243591 4.4129019
106.9044 72.371414 4.2793703
107.09109 72.245956 4.2708845
108.62968 72.26712 4.316813
26.582485 72.906769 4.4928122
41.006561 72.733398 4.4680982
106.78986 72.732048 4.3158202
108.68653 72.691116 4.364521
26.797327 73.153976 4.4995522
27.142384 73.147926 4.475863
93.676651 73.133698 4.0267897
105.80432 73.113419 4.3308582
106.64984 73.075684 4.3498802
29.762388 73.612411 4.3407555
93.91983 73.619835 4.0909452
106.1365 73.870041 4.4244075
32.241356 74.342285 4.2401242
32.736439 74.199684 4.1950746
33.062645 74.206406 4.174222
93.875397 74.37719 4.1820302
94.282143 74.273468 4.1782727
106.25787 74.140503 4.4580412
93.667542 74.688705 4.2157564
45.136429 75.398148 4.4536333
93.482605 75.014999 4.2520156
93.590805 75.348221 4.2954655
45.324989 75.860687 4.4960771
38.804028 76.460861 4.0034561
45.817108 76.142708 4.493576
36.929333 78.208359 4.2789993
36.948364 78.570808 4.3102665
37.01878 78.663498 4.3141136
44.657593 80.929214 4.0488119
47.760895 82.774918 4.0361032
48.03558 82.780632 4.0207229
48.244278 83.152229 4.0430408
48.686035 83.18116 4.020288
49.327908 83.42981 4.0065508
46.476368 85.040901 4.3200483
50.345448 85.520782 4.1427593
48.605061 87.671127 4.4408212
49.747246 87.86351 4.3939266
49.372421 88.102768 4.4373007
49.910988 88.43338 4.4375963
99.127449 89.188873 4.1984653
72.686943 98.164131 4.1715865
73.037018 98.141754 4.1529756
72.569092 98.883629 4.2435575
41.626762 100.89397 4.2534928
47.755192 103.14377 4.087749
48.184643 103.8568 4.1079688
47.196072 104.162 4.174818
47.968903 104.01726 4.1280513
80.907288 -6.6924896 4.8926311
80.418282 15.069912 4.9951692
74.429596 17.389118 4.5293131
75.077545 17.86504 4.506536
59.103416 22.808712 4.9686384
59.324387 23.189676 4.9021735
59.71682 23.206881 4.8856435
60.026321 23.051819 4.8989697
60.304398 23.696934 4.7927475
60.668331 23.867245 4.7570329
61.092415 23.97385 4.7307229
60.936699 24.045082 4.7235441
60.983528 25.397104 4.5187163
61.111031 25.457138 4.5070324
89.997498 25.971298 4.9904342
90.102066 26.615505 4.9738069
86.981079 27.156437 4.6429477
87.126984 27.209053 4.6545491
87.516975 27.400841 4.6837063
90.032288 27.18487 4.9438682
87.564194 29.678513 4.5950232
87.168793 30.202066 4.5347443
52.494854 30.937517 4.9640255
52.63205 30.883921 4.9582763
87.1605 30.759748 4.5140896
36.523453 31.105522 4.7900343
52.448322 31.06358 4.9463787
91.427025 31.445114 4.9622035
87.404358 31.571875 4.513526
87.699974 31.751619 4.5401139
91.585464 31.511097 4.9787517
52.451309 32.302818 4.7206855
52.504368 32.228634 4.7278733
90.435844 32.334442 4.8303399
90.595139 32.38784 4.847424
89.975433 32.898094 4.7661753
52.260113 33.191681 4.5835161
89.734123 33.275063 4.7311387
89.281921 33.889008 4.6676593
89.59465 33.57547 4.7094665
51.508484 34.065601 4.525754
89.31073 34.154705 4.6665425
89.25045 34.688057 4.651329
89.613899 34.918949 4.6911659
89.495796 35.335861 4.6721873
89.659485 35.104359 4.6943388
91.707001 35.385925 4.9386158
106.43135 35.032661 4.9641004
89.374237 35.537125 4.6554904
89.634888 35.615807 4.685997
90.192657 35.684338 4.7526779
91.756142 35.581249 4.9434996
106.46843 35.578751 4.9820423
41.421295 36.356262 4.5828714
91.728439 36.385773 4.9371562
106.48959 36.145729 4.9998889
41.542648 36.852612 4.5306811
90.576241 36.552788 4.7944708
43.443619 37.19833 4.8727593
90.703323 37.659008 4.8092675
91.389297 37.922318 4.8964167
89.947227 38.238239 4.7156506
90.335632 38.548218 4.7659578
90.873947 38.732376 4.8355694
90.921509 39.116791 4.8446693
91.768188 39.333652 4.9558468
92.101982 39.009392 4.9953489
89.43187 42.252384 4.6984663
89.658203 42.431656 4.7326374
89.679726 42.785294 4.7442341
44.029514 43.157009 4.9001579
89.732597 43.2495 4.7636819
91.431274 43.178802 4.99018
46.18705 54.541039 4.524663
45.189354 55.574783 4.5146594
44.254166 56.376579 4.8966165
45.190075 56.058849 4.5894527
93.720856 56.449635 4.8782907
94.187439 56.246838 4.9072437
92.422577 56.899021 4.7878857
93.406868 56.723896 4.87255
46.127892 57.236416 4.5382524
92.303581 57.256981 4.811666
44.008705 57.679279 4.6330237
47.590763 57.724792 4.6933308
91.785767 57.724216 4.8062596
92.263153 57.809624 4.8641701
47.850372 58.329472 4.7600141
48.208401 58.291306 4.652164
91.623566 58.001053 4.8184624
48.209351 58.904449 4.8021169
48.343246 59.050224 4.8030076
40.421211 60.888474 4.580503
40.446312 61.259602 4.6273971
40.465645 61.600639 4.6716242
40.671234 65.958427 4.5019288
40.689533 66.248428 4.5386667
40.715969 66.745537 4.6026673
40.744576 67.255913 4.6688166
40.777344 67.77845 4.7367501
40.802002 68.266502 4.8014207
40.833427 68.765602 4.8673739
40.862511 69.281677 4.9364672
40.8876 69.626762 4.9823122
19.427532 71.465271 4.8563638
19.579893 71.637733 4.860405
23.756207 72.28006 4.6302691
24.331036 72.56662 4.6156812
24.664402 72.59967 4.5959496
26.663515 73.088623 4.5029411
41.037331 73.234894 4.5245862
41.065262 73.754219 4.5836225
41.088612 74.215843 4.6364026
108.74134 74.18795 4.5307508
41.122135 74.676147 4.6883359
108.79361 74.74543 4.5942736
41.149666 75.247696 4.7542119
42.885715 75.446472 4.63657
43.314209 75.289536 4.5832701
43.743549 75.413864 4.5642767
44.244282 75.495049 4.5347624
44.580719 75.469719 4.5054126
108.81203 75.498566 4.6792703
41.182529 75.824402 4.820478
42.673462 75.523651 4.6629643
44.213753 75.550079 4.5438967
44.676189 75.754128 4.532865
45.149567 75.895004 4.5137148
44.611847 76.005112 4.5686126
45.289886 76.367943 4.5612788
44.534664 76.797699 4.6718931
45.281639 76.83419 4.619441
45.922604 76.66938 4.550858
46.045124 76.551308 4.5270572
46.333038 77.216553 4.5882978
46.679424 77.269897 4.5695181
47.039165 77.277817 4.5442891
45.915009 77.691406 4.6782074
46.924206 77.962944 4.638185
47.767021 77.812599 4.5589857
46.984547 78.067459 4.6468906
47.185516 78.248672 4.6551237
47.876373 78.23764 4.6046009
47.297348 78.669495 4.6998329
47.974529 78.558998 4.6380672
48.176254 80.931351 4.9229388
47.894054 81.112122 4.9651647
48.348297 81.104668 4.9330478
49.457771 81.961014 4.9669247
49.862759 81.679649 4.9045177
50.21257 81.831619 4.9009995
49.556118 82.019127 4.9678044
50.65361 82.35244 4.9388256
50.813416 82.639969 4.9652538
52.082256 83.485474 4.9937854
42.423782 85.482536 4.6001468
42.173355 85.569511 4.6231318
41.764996 86.003067 4.687376
42.270699 86.833481 4.7332377
46.921005 87.490891 4.5206809
45.743111 88.652046 4.696208
43.817566 89.446014 4.8819237
44.299126 89.992889 4.9041295
47.852474 90.260162 4.7236605
43.958885 90.553406 4.975738
44.258625 90.562775 4.9590759
100.28038 92.128555 4.5094085
100.6787 92.218208 4.5136509
99.309235 92.903198 4.6108131
99.679779 92.847672 4.5989294
98.427475 93.454178 4.6868134
98.895279 93.213982 4.6522655
99.1707 93.054321 4.6299686
93.741379 93.922119 4.8209777
94.001617 93.924591 4.816463
97.279518 93.716072 4.7352633
97.64756 93.514961 4.7063093
98.234718 93.680603 4.7155733
98.782806 93.53598 4.6904206
92.771172 94.44252 4.8996525
93.2202 94.216888 4.8648844
93.692558 94.163055 4.8497505
97.140808 94.305321 4.8047733
92.578339 94.664978 4.9292731
92.660629 95.055344 4.9731364
97.445564 95.231667 4.905457
97.257355 95.63723 4.9551868
55.386356 97.655212 4.9953523
55.550262 97.797523 4.9998341
56.021233 97.98909 4.9925265
56.180973 98.089111 4.9933324
39.392227 104.14396 4.5505352
46.403061 116.98373 4.961431
53.306168 116.97173 4.6100426
46.70974 117.22438 4.9601269
47.014629 117.48738 4.9601865
47.319168 117.80896 4.9636374
75.408203 -12.67149 5.3432498
75.911354 -11.962906 5.2847638
75.67244 -10.357079 5.1654806
78.313431 -8.4834785 5.0142803
49.959522 -1.7719269 5.4840646
50.124802 -1.9476204 5.4859395
81.357155 14.72715 5.072988
75.438782 21.345509 5.457128
76.02108 21.319506 5.4985118
75.76281 21.504917 5.4592919
76.198654 21.603264 5.4771433
75.90593 22.403107 5.3632793
76.966461 22.315636 5.4497695
76.668175 23.910973 5.2476645
77.307983 23.516081 5.341723
91.383636 23.905273 5.2179422
76.891685 24.300196 5.2223516
91.435593 24.447174 5.1986613
76.857132 24.926558 5.1513257
77.08107 24.815836 5.1817374
91.533882 24.571583 5.2028728
91.432564 25.216599 5.1652412
91.484528 25.746052 5.1485972
91.775726 25.703159 5.1798005
77.27095 26.257521 5.0457101
78.934723 26.270821 5.1974192
79.609467 26.372238 5.2530398
80.234711 26.455309 5.3076277
77.755028 26.705481 5.0437584
78.128769 26.870642 5.0621066
78.857986 26.880348 5.1309628
80.18914 26.802141 5.2710304
82.089119 26.930641 5.460238
90.969055 26.665077 5.0597749
78.953117 27.361229 5.0945058
80.33567 27.295628 5.2413216
80.715546 27.312155 5.2796659
82.64492 27.314079 5.4896846
81.822769 27.705732 5.3657022
52.264256 30.755611 5.0237966
50.072556 31.290535 5.2137341
92.292648 34.959412 5.0126629
93.078674 35.635811 5.1058154
106.50945 36.317474 5.0067916
106.58871 37.586487 5.0538821
92.151672 38.854382 5.0001731
93.883919 39.339321 5.2304783
93.395325 39.716583 5.1724973
93.870743 39.845566 5.2368526
106.68388 39.919666 5.1478705
32.141182 40.412003 5.4726839
106.7104 40.283775 5.1651864
92.010788 40.837776 5.010324
93.141151 40.754379 5.1577992
106.73061 40.724892 5.1855125
92.759285 41.065971 5.1137466
93.407112 41.817833 5.2175989
93.591469 41.631969 5.2375088
91.824608 43.393932 5.0499229
106.85829 43.358437 5.3199615
91.38636 43.99757 5.0103498
91.748299 43.796028 5.0526557
106.88373 43.707222 5.3402605
91.453186 44.226429 5.0274358
91.601227 44.44656 5.0555429
104.98184 44.270359 5.1731277
106.9562 44.145157 5.3704696
91.714981 44.733131 5.0819211
106.92635 44.704983 5.3973818
107.00249 44.850491 5.4131541
106.853 45.31398 5.4233937
107.01429 45.112026 5.4288378
106.67452 45.745625 5.4294086
104.84321 46.489731 5.2821722
106.72531 46.211655 5.4618359
104.80418 46.818939 5.2977986
104.45811 47.176861 5.283421
104.60808 47.335991 5.3088918
104.42125 47.682819 5.3110318
104.53452 47.774563 5.3287406
104.19542 48.364929 5.3311415
104.52013 48.152046 5.3513227
103.86827 48.550949 5.3090587
104.13235 48.769058 5.3511844
103.95055 49.016144 5.3486633
43.182781 55.298035 5.0349426
37.893707 56.490574 5.1971879
38.493965 56.413841 5.062922
42.52388 56.07497 5.3293481
37.751511 56.781582 5.2609334
37.291019 57.161957 5.4019661
37.787609 57.466824 5.3359427
38.756943 57.28838 5.1133924
35.391304 57.882202 5.0565801
35.538395 57.923237 5.0357594
42.736786 58.188042 5.0107265
44.101776 58.180065 5.2460637
47.246471 58.992035 5.0847297
46.33477 59.481316 5.4531512
40.365856 59.624329 5.1014247
40.435364 60.742546 5.2551451
40.476807 61.178574 5.3144183
40.606033 64.216782 5.0310364
108.04099 64.169174 5.3113337
40.647335 64.745872 5.1053886
109.56868 64.829948 5.4825358
40.675766 65.2463 5.1783361
40.7075 65.761086 5.2540298
40.737389 66.296204 5.3341646
40.763359 66.795578 5.4101324
40.78997 67.202965 5.4719181
40.89064 69.878616 5.0176382
40.922581 70.231499 5.0642347
40.947433 70.731705 5.1329298
40.976006 71.24688 5.2037845
40.991718 71.582291 5.2504439
41.01112 71.844208 5.2862496
41.034115 72.251282 5.3428702
41.064434 72.739365 5.4107971
41.088219 73.171387 5.471508
43.253773 74.777397 5.4890218
43.647041 74.757332 5.4472661
43.842495 75.073608 5.4764094
44.237164 75.240936 5.4639835
44.631008 75.407776 5.4520893
44.754608 75.579315 5.4668694
45.089977 75.746078 5.4612956
45.432751 76.115334 5.4869699
40.269215 77.887573 5.1428251
39.932037 78.102623 5.1962209
40.424629 78.050987 5.1498055
40.794846 78.078072 5.123054
44.442364 80.666275 5.1568303
49.115459 82.846039 5.1019115
50.249023 82.920074 5.0371394
50.867813 83.199768 5.0331688
51.290123 83.721062 5.073071
51.496124 84.184509 5.1193933
51.827522 84.342979 5.1191244
52.664619 84.173363 5.0463395
50.791969 84.813614 5.2438459
51.45755 85.09549 5.2382007
51.752525 85.147804 5.2266827
52.128693 85.026527 5.1880908
50.426205 86.094299 5.4303608
92.2453 95.316689 5.0118718
92.61969 95.313736 5.0040736
92.041061 95.529053 5.0408058
48.475739 96.473648 5.2647967
48.801456 96.424706 5.24196
92.52626 96.455795 5.1394548
53.226749 96.736427 5.0263801
53.606853 96.914375 5.0222912
92.554398 96.812744 5.1807094
53.832306 97.090378 5.0264554
54.29073 97.404274 5.0308995
92.835617 97.497314 5.2552204
54.673409 97.670578 5.0350699
55.215221 97.898613 5.0271974
55.706726 97.950897 5.0057564
92.797401 97.777794 5.2889433
98.196503 97.760818 5.1825328
54.876114 98.379936 5.0902371
55.032917 98.348221 5.0788593
55.847412 98.413971 5.0413814
92.787903 98.240555 5.343545
56.334743 98.566864 5.0296559
56.585068 98.874443 5.0450082
92.66584 98.576836 5.3857017
50.825058 99.243706 5.3913565
51.319889 99.367897 5.3756409
92.87117 99.189484 5.4535294
50.886734 100.07155 5.4649568
56.905426 100.67704 5.1959572
53.717041 101.02259 5.3988719
30.656948 112.60883 5.4570212
37.09911 112.97009 5.1787195
37.29097 113.1086 5.177793
40.455379 116.11662 5.2029514
42.862209 118.12593 5.2032294
43.041111 118.36877 5.2086282
51.150448 -6.5123672 5.7818513
48.672501 -4.6497269 5.8133969
51.668571 -4.235136 5.5608473
49.152119 -3.4378204 5.6791925
50.644444 -3.1302128 5.5435176
50.394104 -2.8194313 5.5365477
50.252453 -2.4271431 5.5152297
46.530373 -1.7990952 5.759223
49.753456 -1.8996124 5.5098042
46.24773 -1.3453789 5.747478
77.102554 21.454313 5.5582218
77.136513 21.628656 5.5406861
80.323624 21.634418 5.7943726
82.87989 25.787815 5.6438746
98.492325 25.884293 5.8889012
82.106628 26.044495 5.5387387
82.757553 26.620968 5.5596757
83.905869 26.623299 5.6880746
84.813446 26.650246 5.7903829
85.600151 26.717791 5.8777418
85.178978 27.344255 5.7810531
83.303604 27.775427 5.5277181
85.690903 27.997505 5.7961555
84.887589 28.014261 5.6970668
85.350197 28.174768 5.7419982
85.374741 28.894381 5.6953788
85.668488 28.501503 5.7586155
86.585579 28.591196 5.8678737
85.441277 29.008961 5.6960063
96.443069 34.601025 5.5244684
96.682915 34.819496 5.5543733
98.725723 37.153667 5.8298354
97.112442 42.412041 5.7340636
95.408752 44.315174 5.5711827
95.529404 44.42197 5.5920439
97.040245 44.416756 5.7992997
95.707916 44.754276 5.6304679
95.407555 45.26453 5.6113033
95.287315 45.62735 5.6112151
107.05091 46.558517 5.5164132
106.30705 49.04715 5.5979552
107.24072 49.255596 5.7101932
107.31236 49.686279 5.7476487
107.41761 50.203613 5.7954259
107.37347 50.717453 5.8281007
107.47062 51.245838 5.8775611
107.4892 51.584873 5.9051313
107.60679 51.841682 5.9371796
107.70681 52.279896 5.9817696
42.692852 55.336964 5.7538724
38.473274 56.731079 5.8228631
36.92907 58.109028 5.5931849
42.617805 58.462524 5.690948
109.59482 65.223328 5.5262198
109.63521 65.621796 5.5716572
110.12292 65.937073 5.6377759
110.12767 66.238785 5.6708493
110.17568 66.748451 5.729753
40.798187 67.409744 5.5042439
110.20541 67.247643 5.7867918
40.817528 67.728683 5.5534649
110.24282 67.752373 5.8454757
40.848892 68.268723 5.6376543
108.60724 68.24437 5.7958798
109.24658 68.051743 5.814959
109.76749 68.004478 5.8431168
40.878578 68.771408 5.7167115
108.54919 68.703537 5.8447385
40.901764 69.23439 5.7907372
108.58234 69.215019 5.905952
40.936745 69.697906 5.8638139
108.61484 69.724701 5.9673901
40.957092 70.191864 5.9446135
41.109768 73.383972 5.5004382
41.120682 73.769196 5.5560169
41.153408 74.302422 5.631372
96.600098 74.116913 5.8158197
11.6786 74.502747 5.640873
41.179504 74.780968 5.6996479
42.770111 74.743637 5.5320535
43.039791 74.769028 5.508966
11.646454 75.311401 5.7106872
41.206715 75.269272 5.7695355
41.238213 75.759895 5.8396068
44.647312 76.082626 5.5546799
45.205479 76.30957 5.5380678
45.394238 76.642845 5.5726275
45.74889 76.681145 5.5465245
46.768047 77.903084 5.6488814
46.490883 78.058388 5.6973081
46.921715 78.186615 5.680573
47.078667 78.485977 5.7146873
53.991966 81.976578 5.7709579
52.847149 82.47583 5.9261985
53.440907 82.120354 5.8294744
53.847008 82.321236 5.8365149
52.933861 82.647858 5.9486232
53.210732 82.850189 5.9637341
53.581829 82.730392 5.9202962
100.96793 84.377121 5.5758328
101.26573 84.236679 5.5629749
101.94425 84.26487 5.5786409
102.05157 84.348099 5.591166
45.93988 84.870277 5.5743375
46.051216 84.924995 5.5734344
100.2679 84.791626 5.6175098
100.1561 85.188873 5.6672597
101.13214 85.090828 5.6706319
99.950363 85.853928 5.7507839
100.25313 85.741547 5.7408347
105.36415 85.863388 5.8444462
105.93185 85.884842 5.8577538
106.22169 85.834183 5.8568273
99.200722 86.468567 5.8203583
99.918915 86.195038 5.7950253
105.08977 86.045761 5.8625627
109.48953 86.27272 5.9757891
109.65385 86.119934 5.9601188
99.062958 86.72419 5.8521996
99.830666 86.739525 5.8653364
100.0089 86.637169 5.8544927
47.404705 87.406082 5.7941442
98.954689 87.266914 5.9227333
99.000122 87.043304 5.8936353
46.873177 87.608788 5.855607
49.261169 87.973503 5.7442508
98.966125 87.51503 5.9559336
46.878098 88.566498 5.9764905
47.214703 88.582474 5.9559293
51.440815 101.1451 5.534349
51.629456 101.10329 5.5201068
49.159096 103.42239 5.8722005
48.180779 103.70599 5.9530692
49.641361 103.92737 5.892395
49.438427 104.03778 5.9139066
49.817947 104.70315 5.9547663
51.376644 104.95688 5.8925829
51.749195 104.9977 5.8759956
52.133251 104.91704 5.8475175
51.747437 105.06123 5.88201
47.283821 -10.203987 6.3668742
47.61554 -9.4832764 6.2831678
46.288986 -6.7409973 6.1708298
46.691185 -6.8289719 6.1448293
44.429146 -6.1281204 6.2807841
46.050232 -6.3212891 6.1573386
44.952961 -4.6745796 6.1210308
45.118038 -4.8578911 6.1210847
82.469826 18.487923 6.310307
75.655502 24.259315 6.3164592
77.151291 24.314772 6.4558387
75.842461 24.776541 6.2607646
76.261505 24.866135 6.2895064
76.87085 24.796379 6.3609657
77.297043 24.981873 6.3800297
77.512917 24.981968 6.4029479
76.952148 25.166876 6.3186517
77.592468 25.067476 6.4000106
99.871826 25.630598 6.0490584
79.693924 26.406174 6.4712992
79.878975 26.720356 6.456418
80.236092 26.946161 6.4746385
77.236755 27.307428 6.0670762
77.731522 27.315815 6.1233029
88.192238 27.48859 6.1433959
77.771751 27.600796 6.092289
78.159637 27.652309 6.1323624
88.15934 27.685545 6.1265826
92.565002 34.442764 6.4506416
92.74881 34.579601 6.4756746
90.705833 36.248684 6.1259341
91.377258 36.032906 6.234117
90.631584 36.789757 6.1047769
92.390129 36.718338 6.3821292
92.713791 36.932961 6.4308043
100.26337 36.862255 6.0255466
90.782768 37.063217 6.1242347
92.310379 37.391079 6.3620234
92.369949 37.648571 6.3692989
92.725609 37.857044 6.4248576
92.904442 38.064636 6.4524875
92.442032 40.550774 6.381031
92.582352 40.766983 6.4062247
92.062927 41.452564 6.3273234
92.161613 41.554062 6.3451433
90.223785 42.424965 6.0330009
90.503441 42.528149 6.0816045
92.295227 42.678478 6.3866086
92.642586 43.868275 6.4744391
107.84198 52.801205 6.0372748
107.63155 53.408203 6.0643005
107.86057 53.76656 6.1179328
107.82794 54.20116 6.1509247
107.94257 54.552818 6.1928096
107.70422 55.065998 6.2121263
107.93375 55.778027 6.2990537
107.98122 56.135578 6.3361344
108.04742 56.318569 6.3596621
107.91281 56.846668 6.3941083
108.03674 56.601517 6.3844337
107.81036 57.013435 6.3989224
108.13769 57.564522 6.4848638
108.64429 70.233841 6.0291114
108.66498 70.734741 6.0897751
108.70084 71.265556 6.1554875
108.73068 71.780899 6.2194529
108.75594 72.21386 6.2735987
108.77724 72.726372 6.3376374
108.81923 73.277328 6.4081392
108.84695 73.70549 6.4630165
43.684929 74.350998 6.3356438
44.180309 74.150757 6.241199
43.205833 74.61277 6.4398336
43.893566 75.212456 6.4697213
44.981445 76.011124 6.4962916
40.10923 77.953278 6.2831335
40.715248 77.522476 6.1571374
40.20681 78.112793 6.2972112
46.214539 80.453072 6.0997629
44.848724 80.630974 6.2458911
45.202473 80.644257 6.2170129
46.421463 80.830872 6.142242
46.507713 80.913406 6.1481256
46.351448 81.188896 6.2050271
46.778511 81.298782 6.1869297
47.246086 81.467682 6.1755285
47.337185 81.627777 6.1937566
47.478642 82.175415 6.2699437
47.834118 82.167076 6.240274
48.108826 82.228287 6.2284093
48.945206 82.354874 6.1840091
49.252907 82.259125 6.1452103
49.670246 82.42881 6.1413345
51.066765 82.470177 6.0467386
48.721695 82.536102 6.2303367
49.953289 82.666695 6.1588936
50.202343 82.829002 6.1669936
51.322487 82.625725 6.0540924
51.597984 82.947235 6.0872965
52.432793 82.98674 6.0370994
52.6073 82.946053 6.0188584
48.054951 83.014122 6.3589053
50.464523 83.23275 6.2135344
50.704487 83.15403 6.1835952
51.823727 83.276344 6.1254535
52.159733 83.345757 6.114006
50.270393 83.59343 6.2860494
35.82312 85.934204 6.4729466
99.389038 88.246849 6.0592718
45.762707 89.231674 6.1363149
45.924828 89.653763 6.1785712
100.25726 89.801819 6.2788467
44.468975 90.526703 6.3888907
44.606449 90.567856 6.3845315
45.039688 90.624146 6.3617034
53.392406 95.812042 6.4960008
46.052067 104.90862 6.184319
82.531998 13.768806 6.8350711
79.358109 14.075947 6.5821924
82.759209 14.256948 6.7967057
104.32874 22.452963 6.6259723
79.202774 23.673883 6.760438
91.456375 24.358791 6.7610526
91.495605 24.529776 6.7547317
91.49472 25.29081 6.705658
91.509544 25.46702 6.6965046
91.723961 25.674774 6.7114239
92.313576 25.689144 6.7874007
92.618103 25.749693 6.8237882
92.436714 26.059546 6.7817807
80.904793 26.73513 6.584877
81.040131 26.932129 6.5797944
81.871986 26.931753 6.689712
83.745644 26.636662 6.9775891
81.211731 27.206261 6.5713477
81.813034 27.168552 6.6556168
82.24057 27.330706 6.6959786
82.352837 27.707642 6.6709685
82.132751 28.483908 6.5587869
82.771149 28.375422 6.6603532
106.29425 29.081274 6.7555537
106.37515 30.054382 6.7627306
106.69945 34.815575 6.8340516
106.73393 35.94096 6.8567185
94.30204 37.68174 6.6795783
93.834427 38.071564 6.6027012
95.131638 39.830849 6.8207598
95.626144 39.965153 6.9041963
95.663391 40.091141 6.9117494
96.032898 41.136978 6.9884343
94.816948 41.609039 6.791924
92.935623 43.425377 6.5125461
92.857643 43.56646 6.5029273
92.815613 44.090885 6.5104365
93.415115 44.157028 6.6152563
93.580215 44.383514 6.6507607
95.523529 44.194382 6.9788899
93.422211 44.917377 6.641614
95.185669 44.931637 6.9467168
93.589699 45.083344 6.676486
95.123192 45.207645 6.9464741
113.7894 55.166183 6.8588791
113.88337 55.757805 6.9203014
108.30686 61.284431 6.8761039
108.33051 61.7477 6.9279804
108.30872 62.203262 6.9749708
108.88175 74.246315 6.5328064
42.42429 74.77771 6.5630798
42.685646 74.902855 6.5544534
108.90302 74.796265 6.6034284
108.9346 75.236557 6.661222
41.132935 75.847878 6.9128475
41.704777 75.615936 6.8014851
43.937397 75.725777 6.5595565
44.107109 75.920898 6.5765181
44.710327 75.977455 6.5198121
41.203041 76.011642 6.9337587
44.312302 76.052666 6.5780063
44.754326 76.022461 6.5233369
109.27991 76.36972 6.8267698
44.38287 77.416847 6.8250432
44.607605 77.41951 6.8011384
44.731857 77.628105 6.8269849
45.194984 77.712761 6.7936292
44.669621 78.235931 6.9481645
45.326233 78.152931 6.863162
45.559425 78.13118 6.8347645
45.902592 78.765732 6.9204016
46.825611 78.659248 6.8078094
46.101498 79.102562 6.9647241
43.6922 82.290855 6.6088386
100.34715 93.343185 6.7606888
100.80421 93.338814 6.7647581
102.94865 93.468933 6.8061252
103.16716 93.36142 6.7941661
43.176628 93.970123 6.9124255
99.742676 93.765778 6.8129869
100.15618 93.579384 6.7912464
101.82484 93.736229 6.829823
102.33619 93.767624 6.8396788
102.63385 93.596474 6.8197813
98.837646 94.455292 6.9006233
99.692017 94.288651 6.8847556
98.525673 94.730225 6.9364715
99.766495 94.802757 6.9566073
51.354645 95.301712 6.5505314
51.650013 95.425758 6.5487232
