# .PCD v0.7 - Point Cloud Data file format
VERSION 0.7
FIELDS x y z
SIZE 4 4 4
TYPE F F F
COUNT 1 1 1
WIDTH 1612
HEIGHT 1
VIEWPOINT 0 0 0 1 0 0 0
POINTS 1612
DATA ascii
84.91227 35.669926 1.2226849
86.783257 35.663849 1.2790056
87.184288 35.89056 1.2982309
91.141327 35.549355 1.4160101
87.416725 36.223015 1.3157136
90.477211 36.474884 1.4248424
87.43515 36.705963 1.3313781
87.766159 36.903137 1.3484551
88.233742 36.935966 1.3649408
89.205231 36.906647 1.396426
90.208992 36.721004 1.424186
90.652191 36.541611 1.4330947
88.447937 37.049187 1.3757894
50.511322 37.891708 1.2875121
89.077644 37.887718 1.4257878
89.252808 38.188553 1.4425344
89.728668 38.39938 1.4668816
50.956718 38.6297 1.2573122
90.061737 38.538269 1.4838095
38.431293 40.610344 1.4322381
50.941353 40.779388 1.243166
51.314396 40.94149 1.2210035
51.263515 41.031929 1.2231643
51.629448 41.405628 1.2002834
51.663887 41.618744 1.1968429
51.259426 42.311119 1.2145345
52.231968 42.343285 1.1612142
52.53553 42.146271 1.1471875
50.906849 42.665604 1.2327015
51.082699 42.56583 1.2229959
51.965443 42.697739 1.1725953
52.124237 42.64827 1.1645242
44.890015 45.942631 1.156715
43.742287 46.373638 1.2587492
44.488663 46.129959 1.1932721
44.69952 46.179195 1.1795845
53.389141 46.425316 1.1744845
53.686314 46.461868 1.4697638
46.406952 46.666401 1.074351
46.989693 46.771057 1.037354
47.010605 46.720085 1.0341411
53.646126 46.586838 1.4662178
32.423752 47.370766 1.3968797
45.279388 47.342072 1.1811622
51.837029 47.492802 1.1466067
52.994736 47.250114 1.0840802
53.177021 47.199272 1.0753735
44.474327 47.544113 1.2499195
44.534637 47.684181 1.250968
45.254082 47.61409 1.1936145
51.355099 47.792137 1.1749374
51.776897 47.563919 1.1498047
53.262852 47.508228 1.4456774
44.657703 48.444382 1.2726886
45.46133 48.076401 1.1961763
45.87331 48.311043 1.1744123
46.048992 48.48703 1.1681056
51.17136 48.18969 1.1850222
51.75864 48.208469 1.1471019
32.530403 48.665169 1.4836855
34.367279 48.511673 1.3680608
34.705856 48.757401 1.3664024
35.232803 48.979759 1.3523769
35.525276 48.835884 1.325496
44.144375 48.999718 1.3368832
45.759327 48.843327 1.2041394
50.983936 48.528736 1.1962608
34.092308 49.47773 1.4531348
34.934387 49.361038 1.3966863
35.114685 49.248051 1.3783088
36.219597 49.10651 1.3054273
44.109459 49.032192 1.3410978
44.806461 49.350079 1.2994626
45.175137 49.134239 1.2611746
45.863739 49.349701 1.2166348
48.783527 49.414806 1.0052997
49.537228 49.483818 1.304826
50.466171 49.344025 1.2313964
50.649273 49.427479 1.2176269
51.311092 49.302158 1.1708025
33.945168 49.618469 1.471718
34.069115 49.54673 1.4594443
50.452614 49.72348 1.2320706
50.858322 49.630829 1.2018138
51.287502 49.730698 1.3143296
40.2957 50.465485 1.1714684
46.563366 50.285549 1.2010503
48.101624 50.341667 1.2957529
50.387337 50.149155 1.2369516
50.839451 50.191563 1.2022421
51.240032 50.308704 1.2897749
45.975872 50.912601 1.2743518
46.264706 50.89444 1.2504466
50.807198 50.678043 1.2862539
51.264416 50.69849 1.4539248
51.534504 50.56908 1.4356943
46.200439 51.153915 1.2670077
46.818146 51.091068 1.2149984
49.254887 51.292408 1.0601985
49.668266 51.306568 1.0959568
50.764866 51.327652 1.3805593
51.12606 51.065533 1.4536215
107.0766 51.38784 1.0244086
49.19352 51.528271 1.3460134
49.827076 51.692741 1.2890741
50.33947 51.829739 1.2444991
50.579842 51.674065 1.2234118
107.05155 51.666374 1.0443368
38.721317 53.305172 1.4666071
48.547791 53.387615 1.1773694
32.659679 53.822479 1.0852724
47.268139 53.834641 1.0168269
48.396057 53.847538 1.2112042
48.654839 53.759659 1.1856745
49.019115 53.947716 1.3422801
91.338531 53.818802 1.0263717
32.672897 54.177505 1.1142663
48.258636 54.209309 1.2403907
90.850471 54.328186 1.0582527
91.279633 54.021679 1.0405426
32.708248 54.617996 1.1496538
47.98077 54.857372 1.2980076
48.234829 54.714718 1.2019672
48.53828 54.842236 1.0162847
90.75779 54.722805 1.0863649
34.699478 55.331978 1.1608803
35.196014 55.206932 1.1388726
39.15097 55.435402 1.0636352
39.631935 55.158253 1.0292776
47.986919 55.42461 1.1689196
48.156445 55.144375 1.099245
90.224251 55.210888 1.1166921
32.780182 55.836067 1.2473361
34.190346 55.711517 1.2038875
34.76239 55.812218 1.1985401
35.055618 55.619003 1.1758759
38.805946 55.534554 1.080003
39.024086 55.518326 1.0734808
44.907257 55.624443 1.2808126
45.428284 55.639408 1.2517579
45.654465 55.947773 1.2616186
47.925327 55.613445 1.2086521
90.233719 55.712818 1.1545208
32.790691 56.214901 1.2777489
34.842415 56.339062 1.2393761
35.123932 56.166267 1.2187499
44.210823 56.254356 1.3686272
45.609562 56.015938 1.2693202
90.757164 56.182655 1.1961415
32.837334 56.737415 1.318758
34.742935 56.532055 1.2573195
90.456253 56.770603 1.2377551
90.654823 56.675426 1.2327185
31.838316 57.44635 1.3990461
32.294651 57.386154 1.3835071
32.859886 57.184681 1.3541008
90.65564 57.199799 1.2732742
31.893097 57.754578 1.4222978
90.788048 57.721966 1.315576
91.060486 57.636517 1.3119915
31.914154 58.369518 1.4705677
33.144073 58.271088 1.4338593
90.122757 58.334839 1.3562688
90.96048 58.021187 1.3410871
91.124908 58.14843 1.3530309
31.920916 58.641251 1.4918568
33.333393 58.510521 1.4483323
90.19236 58.702545 1.3863617
33.481812 59.083118 1.4898896
33.682739 59.214458 1.495453
37.275978 59.45623 1.4297419
90.403915 59.017845 1.4140451
90.701012 59.279739 1.4385608
37.313358 59.74931 1.4516301
68.920387 59.886223 1.2400364
90.713013 59.725426 1.4748271
37.331768 60.189758 1.4852725
68.796677 60.104824 1.257351
68.357506 60.898926 1.3220372
68.99514 60.887951 1.3278401
69.17765 60.867073 1.3279446
69.685951 60.845795 1.3315312
68.132202 61.456001 1.369873
68.986374 61.336121 1.3677819
69.041504 61.3452 1.369181
36.983086 61.83147 1.0022209
68.300217 61.805252 1.4035906
68.645981 61.680382 1.3955572
69.422684 61.56007 1.3925133
70.368675 61.854847 1.4289422
71.010422 61.547859 1.4079341
68.468079 62.030075 1.4260262
68.782951 62.467995 1.46995
68.819115 62.614628 1.4841042
70.166641 62.57095 1.492775
68.380775 63.185349 1.0090591
68.799072 63.70388 1.042935
69.765305 63.787399 1.0262939
25.227791 64.436203 1.0582563
25.155001 64.610519 1.0693696
56.260967 64.725914 1.0086637
25.634863 65.34446 1.1235492
31.141567 65.436203 1.1822512
38.201675 65.294678 1.2317958
56.245625 65.217514 1.0237197
32.389805 65.926666 1.2239767
33.382736 65.775444 1.223063
40.649693 65.956497 1.2831165
56.267651 65.679749 1.0357152
32.770866 66.255058 1.2472646
40.64003 66.117882 1.2916137
56.295879 66.154861 1.0476705
25.472557 66.656929 1.2078528
25.50873 66.537994 1.200525
32.945641 66.867897 1.2854609
18.257938 68.904182 1.2848432
18.264408 69.179642 1.302534
32.153282 69.894188 1.4524977
32.8176 69.869698 1.4546642
32.847687 70.144516 1.469592
92.784935 72.308098 1.1862944
91.930565 72.81292 1.2504278
92.108994 72.666611 1.2335188
91.94648 73.041847 1.2696171
92.065506 73.316772 1.2902136
92.173378 73.743233 1.324108
92.058479 74.158623 1.3626457
92.382172 74.600159 1.3925675
92.78035 75.089172 1.4247556
93.014168 75.35218 1.4415908
92.959641 75.650848 1.4687371
93.032227 75.683823 1.4697709
94.663139 75.744743 1.4342256
99.94767 97.037537 1.0804985
96.034088 97.906364 1.3507595
50.965214 -7.8477135 1.6273913
52.452923 -3.3074074 1.5236573
51.698112 -1.1709099 1.5393381
51.903633 -0.93922043 1.5282478
93.125114 37.029465 1.5371859
90.788597 38.713539 1.5165071
90.482971 39.11898 1.5209002
90.706451 39.235622 1.5335641
91.068619 39.370728 1.5521481
91.087891 39.682983 1.5652299
89.912704 40.584396 1.5576005
90.161118 40.759781 1.5740676
91.788712 41.158722 1.6529603
49.875797 41.776695 1.8978763
51.920326 41.797871 1.76279
52.417809 41.637978 1.74146
88.875114 41.689171 1.5637515
89.455048 41.704193 1.586466
90.257484 41.628113 1.6140121
92.419418 41.815475 1.7063751
49.774204 42.358089 1.882741
50.025452 42.117073 1.8736582
50.708309 42.025711 1.829591
52.219334 42.135632 1.7313963
52.937492 42.356041 1.6832626
53.079834 42.420975 1.6732634
92.326035 42.323853 1.7256079
49.103966 42.620628 1.9244266
50.538857 42.675415 1.8150632
51.896278 42.79401 1.7223731
52.6926 42.928577 1.671594
53.205753 42.648293 1.6572185
89.338966 42.70974 1.6252034
93.413452 42.662903 1.7848265
49.822006 43.36097 1.8405211
89.564087 43.261238 1.6585445
90.673798 43.236816 1.7015457
91.010666 43.321564 1.718931
50.622803 43.586914 1.7728529
90.769295 43.81488 1.7323112
95.162552 43.575607 1.90046
50.189892 44.338902 1.7751145
51.729271 44.314583 1.6693625
52.023724 44.434994 1.646042
91.102753 44.235302 1.7658842
91.784172 44.417152 1.8026302
51.416332 44.712929 1.6731527
51.696243 44.615398 1.659001
91.955566 44.584084 1.8179138
44.959534 45.328033 1.6861591
91.143921 45.231911 1.8165878
91.823128 45.292522 1.8479387
35.182526 45.683933 1.9229201
44.704849 45.811817 1.7143228
45.147285 45.820831 1.6729037
91.203522 45.856895 1.8508501
91.844429 45.504078 1.8596146
91.177719 46.072098 1.8608974
91.903419 46.125965 1.8943564
92.01619 46.302837 1.908457
92.783813 46.361412 1.9442432
45.283699 46.977798 1.6712315
53.242386 46.665207 1.8906149
53.905773 46.836899 1.8436872
91.797638 46.515175 1.9104381
92.264877 46.730782 1.941934
92.698135 46.883286 1.9687783
45.174271 47.118084 1.6833296
45.634918 47.346592 1.641566
50.87167 47.255161 1.6117048
54.090309 47.329926 1.7968105
92.798706 47.071522 1.9834044
45.249985 47.796856 1.6842924
51.404999 47.995129 1.5429358
51.85503 47.712845 1.522101
45.139412 48.356857 1.7030385
50.668694 48.429749 1.5845617
51.379753 48.041634 1.5430043
51.589092 48.072308 1.5264825
52.046612 48.433712 1.8331327
32.390572 48.926071 1.5105191
36.379059 48.893387 1.9882624
36.653168 48.955051 1.9676037
46.103104 48.705997 1.612031
51.496651 48.650223 1.8615372
51.786057 48.662708 1.8367709
52.026215 48.578461 1.8239136
32.572224 49.301201 1.5272985
36.88623 49.000938 1.949692
45.24757 49.155975 1.7048187
45.71302 49.325768 1.6600035
46.114197 49.277958 1.6187097
32.444355 49.73637 1.5662576
32.590977 49.745636 1.5585219
33.79208 49.974079 1.5062612
43.340565 49.819599 1.9233007
43.735695 49.923389 1.8823137
44.08567 49.763401 1.8401463
32.471031 50.22337 1.6002761
32.60041 50.094376 1.5834041
38.304043 50.418678 1.9035021
38.704002 50.279755 1.8604829
47.201424 50.47963 1.8960077
47.550659 50.445267 1.8535051
48.249733 50.368671 1.7716452
50.716171 50.084198 1.5231009
51.720924 50.328423 1.7218961
32.485332 50.522648 1.6213696
32.507858 50.784691 1.6393213
38.27018 50.711372 1.9230639
46.396416 50.861786 1.6163906
46.628246 50.792286 1.5908085
47.291401 50.740307 1.7647032
47.887531 50.653179 1.8098105
48.281372 50.607128 1.7637362
50.849213 50.811871 1.7749077
51.245972 50.746258 1.7381958
51.513855 50.547474 1.7254152
32.514252 51.039494 1.6577048
38.250366 51.331512 1.9606386
38.878345 51.383041 1.9075257
45.606667 51.260952 1.7099154
46.143288 51.412998 1.6550426
46.801086 51.310856 1.8170719
47.259052 51.208752 1.8486799
47.656548 51.03434 1.8332771
49.155132 51.400818 1.6480547
50.37056 51.393055 1.6866558
50.691761 51.186382 1.7688065
32.559441 51.627338 1.6985383
38.230766 51.724083 1.9855686
38.823593 51.620445 1.9262574
46.695057 51.60955 1.5999928
49.935387 51.879574 1.6275755
50.252739 51.72514 1.6456305
38.429493 52.125172 1.9917458
45.493294 52.137329 1.746067
48.81992 52.321774 1.9586264
49.881199 52.238571 1.6658502
50.120922 52.231049 1.7143226
43.924854 52.573746 1.9425526
44.132313 52.842957 1.9281927
44.771152 52.739525 1.8489724
45.309521 52.632767 1.7825781
45.567101 52.560005 1.7505155
48.333717 52.870834 1.7681415
48.668922 52.752617 1.9670991
49.777241 52.538391 1.8114101
32.661732 53.144829 1.8058844
39.471554 53.185444 1.9624131
46.460709 53.211754 1.9958985
46.719059 53.117722 1.957595
48.223034 53.0452 1.7821455
48.550705 53.043747 1.9771557
48.972549 53.923767 1.8882475
49.041931 53.947353 1.7566079
44.802448 54.423847 1.914241
39.128799 54.836567 1.5572639
39.640091 54.632278 1.512187
44.40144 54.830292 1.9837387
44.544609 54.759647 1.962522
34.221436 55.265694 1.8759949
34.985306 55.249111 1.8301221
38.971111 55.486824 1.6157014
39.078259 55.427174 1.6049168
39.741806 55.159119 1.5459431
44.426964 55.067368 1.8102558
48.031574 55.403416 1.6850094
32.608929 55.55867 1.9927368
38.86869 55.69619 1.6376479
44.898003 55.584011 1.7170516
45.046135 55.626755 1.9455792
45.707756 55.714176 1.6733876
47.975052 55.598328 1.7002832
35.309086 56.297577 1.8919268
38.257545 56.485352 1.7339966
38.821686 56.240116 1.6821064
44.289516 56.456173 1.7344812
44.990353 56.356514 1.9957595
45.06591 56.227402 1.9781921
45.866482 56.102913 1.7743256
38.220139 56.679764 1.7512398
38.751911 56.833302 1.7320478
44.278389 56.525677 1.740406
45.887165 56.690102 1.9023622
38.746277 57.026001 1.7473536
38.228111 57.954933 1.8505423
38.366795 58.204575 1.8621633
31.945881 58.873592 1.5095613
31.958611 59.259403 1.5395327
33.418304 59.445141 1.5197222
33.87574 59.489803 1.5124404
33.044998 59.65184 1.5446444
37.356331 60.423916 1.5027277
91.584312 60.20694 1.5241324
37.364479 60.63221 1.5185238
92.637177 60.730854 1.5792915
92.933037 61.087788 1.6122239
32.119305 61.690418 1.7238655
32.947746 61.709469 1.7056611
33.404396 61.784161 1.7005087
37.032402 61.846756 1.6188455
98.830299 61.83316 1.7412571
32.142242 62.275566 1.7679101
98.861671 62.301861 1.7808619
70.214912 62.673656 1.5028139
98.879799 62.689621 1.8137267
38.035606 63.751141 1.7365139
98.94857 64.350929 1.9564149
98.984169 64.667686 1.9842361
32.586582 65.437057 1.9936078
32.849052 72.964294 1.6144757
33.18713 72.948341 1.6144007
33.506676 72.941299 1.6146705
33.621368 73.1866 1.6267376
35.389481 73.679962 1.6509509
37.266163 73.896027 1.6579596
37.524193 73.987518 1.6612551
32.412411 74.407669 1.6838319
32.59713 74.387856 1.6830897
33.813248 74.154907 1.6729555
34.283321 74.126534 1.6717345
34.741158 74.133217 1.6719698
35.822811 74.084969 1.6689466
36.289497 74.061142 1.6672088
36.709618 74.015625 1.6644385
26.266222 74.904312 1.6918643
37.815929 74.938301 1.7004957
38.092899 74.938736 1.6993039
26.239326 75.255974 1.7100394
28.797327 75.371552 1.724115
29.083681 75.434875 1.7279563
36.625919 75.073448 1.7105372
37.141548 75.207932 1.7144735
38.161255 75.217285 1.7104352
26.229527 75.661423 1.7309313
26.742153 75.676361 1.7334592
38.181927 75.737709 1.731492
38.202377 76.142273 1.7476463
93.656425 76.373566 1.5137283
38.668747 76.884125 1.773739
39.037796 76.761292 1.7662079
93.644356 76.613335 1.5347843
94.426994 77.148506 1.5614376
42.398827 77.854019 1.7698555
42.569187 77.880234 1.7683542
41.958359 78.266953 1.790045
42.431412 78.419556 1.7885988
42.806812 78.254776 1.7775123
37.966583 78.935593 1.8578966
37.198971 79.379936 1.8811787
37.682617 79.198456 1.8702559
45.171677 79.835777 1.7860092
43.23682 80.874352 1.8559208
46.23539 80.582527 1.7851386
37.756149 81.353149 1.9494926
44.96328 81.920853 1.8539307
37.362427 82.174026 1.9834592
44.311733 82.079346 1.8726387
44.602573 82.237518 1.8713337
45.111015 82.401566 1.8651206
46.726322 82.038452 1.8159502
103.07852 82.675766 1.8227253
105.29855 82.811302 1.7783018
97.914795 83.020546 1.9849842
102.82956 83.300491 1.8834913
103.06378 83.094421 1.8595603
105.23267 83.311325 1.8233986
106.93816 83.268021 1.7765405
101.19608 83.908073 1.9783789
101.89146 83.763298 1.9478745
102.29364 83.774712 1.938581
102.53101 83.68586 1.9247482
103.12993 83.784523 1.9180733
104.85339 83.78392 1.8741387
105.40652 83.618073 1.8456666
46.848282 84.49855 1.8836114
47.758354 84.363083 1.8546629
48.083282 84.417313 1.8468831
102.04948 84.051514 1.9690447
44.423954 84.924934 1.956176
46.755238 84.613724 1.8893614
47.235031 84.691086 1.8785706
108.72113 84.791077 1.8636951
44.125 85.015106 1.9656532
44.549042 85.016373 1.956022
48.242981 85.190704 1.863801
48.326515 86.192207 1.8891547
48.127537 86.644333 1.9076862
78.271095 87.745125 1.6180217
78.831177 87.59507 1.5789495
79.236176 87.764008 1.5688705
77.869713 88.301437 1.6753154
78.087379 88.254547 1.6609533
79.028137 88.040001 1.5978935
48.10585 88.816322 1.9685206
48.052067 89.653496 1.9932947
76.492783 90.982391 1.9203295
75.778473 91.375336 1.9819231
76.17318 91.108627 1.9447187
98.86235 107.22363 1.8209269
99.084023 107.12427 1.8026307
69.95443 123.957 1.9425912
70.301628 123.89168 1.9222242
70.674789 123.92947 1.9032831
69.2752 124.13412 1.9835081
69.723732 124.00336 1.9561491
75.092239 17.452183 2.4589238
76.032677 17.715416 2.4661303
75.390312 18.247185 2.4401393
75.568939 18.22892 2.4435964
77.829605 18.58629 2.4769976
76.302368 19.777138 2.4137247
75.977142 20.646355 2.3838165
77.110138 20.813515 2.4039001
77.321106 21.464128 2.3926735
77.523819 21.566132 2.3951228
57.708294 22.373085 2.3658402
77.482536 22.1996 2.3789439
77.568405 22.326694 2.3781412
77.111725 22.502979 2.3623884
78.500633 22.553257 2.3979528
56.415993 23.037659 2.3780155
56.644428 23.278067 2.3601048
56.911762 23.714628 2.3327181
57.274231 23.722357 2.321146
76.826553 23.847818 2.3234687
77.211403 23.927515 2.3319294
57.764103 24.212936 2.2857218
58.055046 24.231243 2.2767811
77.569771 24.16378 2.3365812
78.248589 24.428263 2.350708
77.378387 24.811216 2.3171449
78.584663 24.568426 2.3580458
61.629532 25.266941 2.1589863
77.358643 25.21402 2.3080027
80.906227 25.468098 2.4198935
58.315975 25.949696 2.1969452
62.256298 25.685013 2.134064
78.338455 25.509865 2.3318362
79.550461 25.777328 2.3668959
82.799286 25.515434 2.4910622
58.028824 26.000244 2.2023318
58.751106 26.1036 2.1795883
59.182083 26.234951 2.164042
61.962189 26.403278 2.1090357
63.438194 26.366657 2.0962162
63.718822 26.43162 2.0918818
78.219589 26.255169 2.31387
78.714073 26.408792 2.3273962
79.744324 26.226103 2.366086
80.75959 26.432934 2.3997707
81.596466 26.451006 2.4314585
83.088127 26.307442 2.492974
59.442757 26.721428 2.1380258
59.698261 26.856529 2.1271436
60.23468 26.971737 2.1121299
61.710384 26.96768 2.0896654
62.251846 26.857533 2.0877206
62.523796 26.899973 2.0832238
79.02317 26.679539 2.3332112
80.978622 26.50716 2.4069357
81.07029 26.621483 2.4087989
83.202415 26.744854 2.4928169
59.92218 27.161488 2.1101236
60.17458 27.282978 2.1004529
60.955292 27.267405 2.0881026
61.27821 27.168554 2.0874157
61.533165 27.233826 2.0813046
62.726894 27.22176 2.068799
63.022217 27.201948 2.067101
83.21151 27.274628 2.4876497
60.366783 27.726706 2.0788784
60.64996 27.706579 2.0750434
79.451187 27.577042 2.333971
83.841614 31.431301 2.489172
83.895569 31.568935 2.4914927
38.66098 39.572617 2.226485
38.55497 40.590248 2.2501562
38.18325 41.381939 2.2993927
37.785908 41.841335 2.3478718
51.525692 41.899483 2.3639913
52.326859 41.903908 2.3126154
51.509094 42.144947 2.3464143
52.165821 42.384506 2.2853446
53.537712 42.366268 2.2109509
51.13319 42.660172 2.3338437
51.875965 42.818943 2.2705104
52.103825 42.74786 2.2612689
53.292191 42.864967 2.1843395
53.507622 42.89666 2.1709404
50.934132 43.058701 2.3185966
51.878998 43.042877 2.2531245
52.956581 43.282784 2.1694708
53.310158 43.147629 2.1612213
50.218662 43.974075 2.3082964
50.572342 43.910233 2.2837014
51.299278 43.650776 2.2471466
51.63932 43.741089 2.2161553
52.441223 43.760803 2.1622953
52.755463 43.8577 2.1361904
53.105175 43.551208 2.1404924
49.83017 44.087269 2.3338306
53.457832 44.392799 2.0564859
53.721806 44.463478 2.0380561
50.709476 44.644379 2.2187216
53.388023 44.906857 2.4914186
53.640099 44.92643 2.3576992
54.102142 44.987724 2.4472499
103.3598 44.749416 2.3111482
54.168873 45.105164 2.4310133
100.53944 45.350899 2.2225115
103.75739 45.184143 2.3530509
100.57244 45.769791 2.2474976
44.267517 46.0233 2.3132782
53.319424 46.392113 2.3271618
53.561878 46.326939 2.3212464
101.05403 46.157204 2.2906075
52.870327 46.757908 2.3132532
53.20977 46.549255 2.3157516
54.840244 46.928986 2.1988282
94.478676 46.736275 2.0373685
94.802925 46.795807 2.0546763
39.376095 47.15831 2.2936814
39.537071 47.39785 2.2821963
46.657555 47.392769 2.4793262
53.859066 47.304241 2.195436
54.287212 47.164143 2.1922898
54.654449 47.151531 2.1797733
39.439255 47.598324 2.2987871
50.781288 47.709923 2.3843257
53.883453 47.504543 2.1714065
54.176579 47.917969 2.478096
96.361176 47.75742 2.1773474
39.790283 48.428387 2.2833962
40.034607 48.32206 2.2524381
45.836098 48.341019 2.0905559
46.14254 48.114517 2.0572934
50.482498 48.113785 2.3745415
50.530968 48.137856 2.366796
52.926239 48.259407 2.4997556
53.246204 48.377972 2.4604783
53.525314 48.466591 2.4296923
96.379456 48.063156 2.1960206
96.699593 48.289227 2.2235315
35.690407 48.935646 2.0511863
46.462738 48.815243 2.0081735
51.444485 48.767982 2.2071693
51.899639 48.732925 2.1687608
52.767254 48.588818 2.4632528
53.370483 48.609562 2.4180064
53.562534 48.517258 2.4199808
96.499817 48.799618 2.2451899
96.548317 48.788673 2.2467084
32.475128 49.145775 2.3494205
40.366497 49.044029 2.2364786
46.444946 49.369026 2.0026822
51.800293 49.287132 2.1183136
52.323215 49.239094 2.3805213
96.812721 49.189198 2.2827933
97.164886 49.430435 2.3133423
32.469582 49.933701 2.3971095
43.913303 49.99086 2.3309252
44.325577 49.684006 2.2742941
51.49165 49.977547 2.0757191
51.666229 49.891403 2.0670977
52.214954 49.865715 2.3260324
97.056702 49.754314 2.3286076
32.359486 50.496429 2.4415581
33.476059 50.073048 2.314714
33.648891 50.058296 2.2982562
42.980434 50.393051 2.4644318
43.691128 50.064587 2.362031
47.423351 50.389103 2.2379963
51.371582 50.135826 2.0721538
51.757011 50.168736 2.1264343
52.09795 50.283646 2.2783737
97.336815 50.275726 2.3740282
98.044479 50.039581 2.390924
38.761848 50.79348 2.4889712
39.37664 50.539261 2.4049363
39.646519 50.806519 2.3832872
40.127262 50.548035 2.3160253
43.706673 50.981094 2.3665414
47.860771 50.608917 2.1658316
48.080723 50.608253 2.1344502
49.65395 50.94762 2.2133837
50.214001 50.823498 2.4485102
50.784958 50.817112 2.2684736
51.192947 50.833103 2.0688319
51.721378 50.768288 2.2385015
97.645714 50.728748 2.4169366
38.990891 51.122944 2.4752059
39.750595 51.016861 2.3792777
45.459278 51.387753 2.1224415
45.604839 51.24538 2.1018517
47.420959 51.06163 2.2134426
50.254166 51.322113 2.2832594
50.874367 51.269844 2.0181112
51.29747 51.107891 2.2579775
51.523964 51.038338 2.2389145
97.798195 51.161194 2.4519176
39.330914 51.964397 2.4709976
42.512333 51.902275 2.0845606
43.405392 51.5462 2.4174075
45.425404 51.717476 2.1290567
49.78183 51.885468 2.3262687
50.310627 51.761055 2.0780635
50.761051 51.626972 2.17185
51.066174 51.701248 2.3460503
38.314842 52.305035 2.0130377
39.226292 52.041943 2.4873803
43.00901 52.430672 2.49367
44.197693 52.321651 2.3137465
48.754559 52.29493 2.2586458
49.317459 52.374092 2.1845138
49.798439 52.301201 2.1881106
50.243496 52.245987 2.153168
50.535976 52.292683 2.2241457
38.334988 52.550682 2.0262659
43.813896 52.703167 2.3786321
44.130661 52.620701 2.3293188
46.465965 52.95076 2.3268199
46.805698 52.925858 2.2685792
48.198994 52.883694 2.0785758
48.735157 52.787861 2.3546584
49.169239 52.660015 2.4215815
49.690094 52.612514 2.2911057
38.779388 53.109409 2.0206692
43.914364 53.114418 2.3732476
44.043198 53.233086 2.3566785
44.795158 53.103661 2.2399571
46.362549 53.215736 2.0575602
46.608288 53.093517 2.3009756
47.200562 53.124825 2.1986306
47.8783 53.397785 2.0799766
48.235043 53.296043 2.2041497
48.701847 53.187744 2.3790329
44.690578 53.954716 2.277617
47.899437 53.721752 2.3519683
48.083073 53.592083 2.3196061
48.976032 53.900661 2.1328747
49.084763 53.95425 2.2717559
94.000748 53.740662 2.4521275
39.601974 54.231087 2.0173609
43.351341 54.227676 2.083739
44.700066 54.247959 2.2854488
91.695717 54.330254 2.3872514
92.736343 54.019066 2.413358
39.270115 54.799088 2.0858648
39.692295 54.817753 2.0480535
42.260681 54.517815 2.234597
43.864399 54.859909 2.0521891
44.783314 54.666126 2.286922
45.339691 54.825748 2.2054198
45.794144 54.888592 2.4618018
91.391373 54.74781 2.4027882
38.814568 55.361229 2.1666875
39.413574 55.073196 2.0911884
39.586903 55.323055 2.0923333
44.309864 55.098797 2.0091581
44.677689 55.09441 2.3204191
45.185856 55.308609 2.2488213
45.74852 55.107586 2.4758301
48.083057 55.397205 2.1625757
91.380836 55.266853 2.4395909
38.831223 55.802322 2.1963036
39.204288 55.837105 2.163991
44.091892 55.645195 2.4395175
45.252632 55.674782 2.2543745
45.816044 55.722179 2.2712533
46.018028 55.74572 2.4433622
48.023525 55.582127 2.1939847
49.083836 55.956036 2.3627663
90.568375 55.832886 2.4432862
91.092606 55.61182 2.4513447
29.203382 56.407784 2.2578287
38.855663 56.402786 2.2373776
39.310673 56.246647 2.1835203
44.988712 56.423214 2.0001452
45.974026 56.336624 2.2724679
46.251667 56.248745 2.2676017
46.500481 56.140511 2.3640428
47.406891 56.406815 2.4545071
47.565781 56.240826 2.4130695
48.981476 56.216335 2.2974715
49.037109 56.116497 2.3183868
90.329758 56.227425 2.461478
29.215881 56.66906 2.277494
38.406956 56.664654 2.2986641
38.736183 56.903931 2.2857161
41.694786 56.879414 2.155997
42.080399 56.950165 2.4086766
44.300716 56.768387 2.2896531
45.939293 56.503712 2.4905879
46.289387 56.718472 2.356658
47.351151 56.64098 2.4756532
90.216331 56.545418 2.4800227
31.885349 57.303391 2.1708379
32.756752 57.115074 2.1050272
37.088303 57.329727 2.4724138
38.775539 57.176762 2.3026288
39.274132 57.498402 2.280467
41.794727 57.084259 2.4550514
42.329391 57.453014 2.4130125
31.941753 57.613953 2.1919551
37.136719 57.511578 2.4818826
38.78833 57.846516 2.3530397
39.111115 57.631546 2.3060362
41.966446 57.685352 2.4773369
42.288345 57.595604 2.4289763
31.93413 58.26722 2.2440343
38.45702 58.185059 2.4108045
38.620701 58.330811 2.4070981
31.956787 58.731163 2.2795658
33.616718 58.91045 2.1966047
34.282322 58.77269 2.14663
34.633732 58.672417 2.1180437
38.462395 58.682434 2.4501915
31.98527 59.270897 2.3209937
37.322693 59.493801 2.0263255
32.020744 59.73457 2.3561227
33.243973 59.543678 2.2691517
37.363144 59.757263 2.0452273
37.39872 60.254227 2.0834467
37.400024 60.641388 2.1149316
32.152328 61.589241 2.4989679
33.45108 61.756783 2.4369082
37.275166 61.63924 2.2042742
38.059341 63.73259 2.3342583
25.329845 64.405121 2.0916202
25.335752 64.71843 2.1150913
98.993774 64.984161 2.011842
25.348732 65.029991 2.1382165
25.679333 65.267921 2.1481266
31.227341 65.404358 2.0243034
99.019562 65.301491 2.0398312
25.481823 65.957619 2.2044475
25.661667 65.696541 2.1806247
32.409771 65.916542 2.0331502
32.593678 65.72625 2.0146804
25.566135 66.248825 2.2240999
32.637497 66.132904 2.0433967
25.582998 66.565651 2.2472448
32.170624 66.523293 2.0833995
99.170433 67.256668 2.2145724
37.358021 67.832924 2.0469337
37.383015 68.250916 2.0756714
37.402737 68.761024 2.1108665
37.441864 69.017471 2.1277306
37.690052 69.354401 2.1445949
31.801207 69.934486 2.3381188
32.202972 69.919273 2.3267801
32.787823 69.895447 2.3101206
37.718334 69.712334 2.1686201
32.849594 70.10498 2.3233459
37.753628 70.249863 2.2047408
37.798965 70.726624 2.2362545
93.805862 70.85231 2.4941092
94.323364 70.710808 2.4853468
37.658875 71.319733 2.280627
37.688663 71.736794 2.308234
37.782867 72.028717 2.3254828
35.437996 73.607132 2.4973102
35.538177 73.634521 2.4964185
36.32336 73.574783 2.4706793
36.713387 73.55484 2.4584906
37.222553 73.748184 2.4572833
37.571342 73.916245 2.4587634
43.233318 76.762817 2.4750624
35.110176 83.290947 2.0469401
37.768742 83.408318 2.0227895
97.888 83.196312 2.001122
34.963776 83.841934 2.0688295
36.675076 83.806519 2.0498099
37.241806 83.731232 2.0405571
37.811672 83.915962 2.0400281
38.213676 83.873611 2.0333476
97.481514 83.961609 2.0790267
97.653374 83.758186 2.056639
36.804871 84.097786 2.058717
96.655273 84.377388 2.1372688
97.300018 84.257484 2.1098545
100.68197 84.265205 2.0229175
101.01044 84.124474 2.0021143
30.692156 84.800117 2.1388278
31.064194 84.759796 2.1348693
96.329193 84.684235 2.1729484
100.07243 84.858818 2.090832
39.188641 85.462074 2.0730567
96.483368 85.37912 2.2304697
96.785614 85.270821 2.2129247
97.22551 85.039124 2.1808727
100.71947 85.018768 2.0881553
29.821716 86.478859 2.2108893
30.371975 86.234421 2.1975379
96.899895 86.178909 2.2904706
97.133667 86.007965 2.2691298
30.069159 86.892128 2.2253633
41.294983 87.09111 2.0884271
32.739449 87.859047 2.23878
41.395752 87.695107 2.1052108
41.619789 87.585251 2.0973017
43.714668 87.955154 2.0626845
98.919266 87.840706 2.3847604
29.405552 88.290543 2.2845011
32.438107 88.055054 2.2490122
32.721428 88.102432 2.2478609
33.361809 88.071404 2.2399311
43.762901 88.150162 2.0673172
98.865578 88.028999 2.4029241
31.55196 88.817551 2.2858496
33.153671 88.593819 2.2610409
29.123919 89.07782 2.3169878
31.230087 89.245438 2.3047733
29.666632 89.962257 2.346035
47.743599 89.73999 2.0051303
100.41769 89.531242 2.4954519
29.989578 90.21946 2.3527248
42.971947 90.774277 2.1635728
67.867882 91.442444 2.3752649
68.012733 91.465164 2.3697875
24.914656 91.564621 2.4438746
31.310219 91.997391 2.403774
67.764153 91.669769 2.3945065
68.260941 91.569847 2.3645251
68.697762 91.797264 2.3579452
69.061165 91.997414 2.3531313
75.322662 91.80117 2.0323355
75.537697 91.509636 2.0027418
67.425468 92.362282 2.4541011
67.681068 92.158722 2.4291997
69.321465 92.267365 2.3576543
46.184116 100.27637 2.3440738
50.207092 100.18878 2.2068229
54.015297 116.58694 2.4972329
54.821453 116.9011 2.4724176
54.42408 117.25122 2.4981611
54.628582 117.09045 2.4854472
57.93919 121.37688 2.4581876
58.261459 121.32533 2.4425611
58.778442 121.07137 2.4127274
59.362053 121.34277 2.3937306
59.84787 121.83579 2.3848743
67.915001 124.48752 2.0642986
68.253662 124.38213 2.0438414
68.705772 124.24617 2.0165203
62.320328 124.85951 2.3513069
66.707253 124.94604 2.1387131
67.252495 124.7192 2.1047163
67.703789 124.57141 2.0775063
62.123333 125.08427 2.3666773
65.354492 125.45316 2.2204037
65.80867 125.2957 2.1935015
66.254105 125.09581 2.1657
64.368584 125.99622 2.2836845
64.714592 125.8932 2.2639558
77.496788 7.7137032 2.7904601
77.376968 8.4290962 2.7663717
77.636284 8.7714272 2.7583628
76.848755 13.271023 2.6095638
81.044678 14.700741 2.648201
56.628395 17.453163 2.6113443
83.903923 24.955231 2.5423243
88.438568 24.833405 2.7415357
88.51239 24.981133 2.7440844
83.176712 25.554867 2.5056119
84.773003 26.154406 2.5658755
84.68721 26.592615 2.5580871
85.317154 26.696377 2.5852313
85.532013 26.910019 2.5933285
87.023979 26.644987 2.6643007
85.703842 27.182617 2.5992947
86.853394 27.015814 2.6541677
83.973206 27.548143 2.5181768
44.814289 28.855377 2.7777128
45.030571 28.830627 2.7616565
85.317337 28.79398 2.5716872
85.339775 29.279932 2.5705779
84.629906 30.331732 2.5317585
84.619995 30.534332 2.5305872
87.689507 30.575197 2.6887743
84.913605 31.125988 2.543848
85.186928 31.353912 2.5575285
85.62439 31.442944 2.5801492
86.784195 31.12368 2.6411278
85.809692 31.655975 2.5899005
86.366966 32.032326 2.6200745
90.716644 32.367416 2.8679471
91.016174 32.446068 2.8863525
85.903015 32.679039 2.5963519
88.606277 32.870258 2.748683
84.616379 33.981552 2.529599
87.872299 33.681068 2.7118382
88.631226 33.571976 2.755254
84.762421 34.292984 2.5387189
87.626633 34.125477 2.7008235
89.0158 34.028095 2.7819481
84.958496 34.568413 2.5507662
85.141609 34.767132 2.5620844
85.691818 34.763363 2.5933676
52.702896 35.131844 2.8181446
87.341278 35.355064 2.6946311
87.513084 35.41481 2.7055249
87.602768 35.765244 2.7146626
49.614632 36.411819 2.914772
87.714737 36.102913 2.725301
88.092056 36.2724 2.7506428
88.306412 36.633633 2.768733
88.671898 36.817699 2.7943277
88.871895 37.099075 2.8112526
89.127907 37.355701 2.8317497
89.429543 37.668705 2.8565519
89.502808 37.952682 2.8664033
90.638107 37.957649 2.9410892
89.757805 38.127048 2.8863842
90.842155 38.28511 2.961334
91.029442 38.072502 2.9693604
90.91214 38.711296 2.9750755
91.019844 38.898788 2.9864793
90.98027 39.073723 2.9877605
89.996063 41.424194 2.9788432
89.937454 41.677826 2.9817531
53.291237 42.458439 2.7739394
52.050747 42.973896 2.7920983
89.18483 42.611801 2.9554257
89.654861 42.764114 2.9934659
51.477341 43.365551 2.7907028
52.161812 43.373375 2.7398605
34.912659 43.512314 2.69329
51.265152 43.776886 2.7623758
51.779942 43.723843 2.7282193
52.210575 43.662628 2.7042494
52.769768 43.671154 2.6668415
53.147717 43.776855 2.6326504
34.745033 44.422417 2.7372258
51.259956 44.158482 2.7210832
51.692902 44.116768 2.6911459
52.970249 44.840282 2.5228324
45.239891 45.025082 2.7852445
51.402702 45.425213 2.570642
52.763813 45.082405 2.5083299
35.400478 45.563995 2.6967592
45.551556 45.577866 2.7163336
52.533081 46.367561 2.8069506
53.821125 46.321754 2.7328472
46.238152 46.666222 2.5710971
52.19128 46.667309 2.7900565
52.747643 46.576412 2.7604783
53.222206 46.50642 2.7390745
53.764496 46.655231 2.6862934
54.677704 46.823921 2.6220467
52.404724 47.226845 2.6910853
52.846058 47.075699 2.6798863
53.048969 47.227909 2.7730095
53.768024 47.347996 2.8189673
54.320568 47.269089 2.6131918
54.54932 47.201195 2.570236
28.829813 47.828354 2.5985849
52.330372 47.779285 2.9999533
52.84211 47.778648 2.9568143
53.302135 47.839222 2.5364296
53.709919 47.583561 2.6783154
54.232933 47.868713 2.8214979
54.523125 47.868446 2.8442664
28.888041 48.262932 2.6193585
52.868248 48.224705 2.509099
53.330807 48.173256 2.8488808
53.995945 48.055759 2.8318808
54.065746 48.053852 2.8288653
28.763342 48.629913 2.652796
35.274296 48.985577 2.8338888
52.318237 48.976189 2.7854793
28.810808 49.388466 2.6951437
49.866241 49.479179 2.6659021
52.26355 49.028534 2.7814744
28.820164 49.737297 2.716073
50.402946 49.833569 2.8799958
51.587219 49.873943 2.7077858
52.205395 49.847439 2.6413929
50.355072 50.177055 2.8332813
50.710964 50.298729 2.7576311
51.837139 50.392502 2.587702
52.066204 50.176861 2.598299
52.505547 50.027958 2.5783534
107.25294 50.190166 2.8181095
38.493404 50.827053 2.5227714
38.686134 50.851715 2.5005388
49.713074 50.828239 2.8436255
50.266914 50.94035 2.7284327
50.500355 50.710262 2.7250607
51.317833 50.751453 2.5944257
51.730022 50.703293 2.5475445
52.033089 50.517963 2.5422149
107.36076 50.734104 2.8593173
38.374161 51.418579 2.5631237
38.602787 51.304302 2.5301681
47.661282 51.142754 2.8704901
49.148602 51.308121 2.8854277
49.809265 51.177166 2.7753623
50.24789 51.186779 2.6945817
50.578751 51.245026 2.6288033
51.229511 51.209026 2.5315127
107.49376 51.275486 2.9019735
107.50928 51.273346 2.9025669
38.298431 51.691856 2.584893
38.510056 51.941326 2.5705848
42.79541 51.764133 2.9806304
43.07671 51.974625 2.9304683
48.762394 51.884991 2.8939683
49.154812 51.784115 2.8223686
49.856419 51.841522 2.6724517
50.889893 51.609875 2.5204549
107.27615 51.864937 2.9323735
38.937565 52.293114 2.5347354
39.074364 52.331333 2.5197034
43.10041 52.038731 2.9264045
44.390869 52.467896 2.6949282
44.973766 52.257538 2.5920002
45.053791 52.356956 2.7730756
48.231762 52.268616 2.9712152
48.769806 52.016232 2.8766155
49.138645 52.355427 2.7552927
49.810368 52.041504 2.6541927
50.057793 52.008823 2.6100967
38.948544 52.642654 2.5504243
44.338566 52.506168 2.7043452
44.88063 52.750843 2.684597
45.145821 52.565495 2.671701
45.899387 52.943287 2.7817912
46.410965 52.958313 2.6761646
47.843227 52.840343 2.7512798
48.112442 52.779449 2.9233353
48.845322 52.59869 2.7462358
49.032154 52.55537 2.7553988
39.120033 53.018719 2.5480773
44.35807 53.224506 2.7045076
44.876575 53.302883 2.6101604
45.142448 53.034546 2.560688
46.315647 53.068684 2.6928761
46.675217 53.090836 2.84005
47.234722 53.293861 2.8115978
47.807987 53.36665 2.7919407
48.140392 53.210381 2.6111753
48.714291 53.120361 2.6283848
42.78215 53.774284 2.6647785
44.72401 53.696186 2.6420248
47.772507 53.574947 2.9672887
49.140762 53.958115 2.5858738
42.793041 54.272999 2.7578232
44.316021 54.26886 2.7286108
44.096466 54.712925 2.7820985
45.248642 54.857151 2.9132855
46.267967 54.887177 2.6851373
46.889587 54.899311 2.8438063
47.30249 54.96262 2.9265356
32.678093 55.358246 2.7381747
34.76643 55.295151 2.5388145
44.196869 55.095982 2.7744875
45.219135 55.267025 2.7766504
45.791317 55.340561 2.7141085
46.22113 55.098221 2.6974473
47.024117 55.213142 2.8062952
48.123123 55.395832 2.5238416
38.962837 55.591919 2.7170486
39.302067 55.862556 2.691391
43.702183 55.919773 2.580838
45.411781 55.730476 2.7279656
45.681683 55.802433 2.7242405
46.388809 55.553608 2.9718697
48.066574 55.587536 2.5360706
48.753723 55.852066 2.5812523
38.859901 56.142269 2.7668593
39.304482 56.262032 2.7179766
42.243484 56.446636 2.7853
43.183437 56.289539 2.6221623
43.694706 56.235577 2.6627395
46.923096 56.385719 2.8444476
47.349407 56.356499 2.8634236
47.761585 56.327122 2.6750047
48.854588 56.040607 2.5478671
49.002991 56.165997 2.5023334
38.397526 56.91531 2.8808162
38.565834 56.90345 2.8582697
39.410103 56.535252 2.7232428
42.423363 56.82856 2.7803826
42.507488 56.944229 2.7742202
43.493008 56.520618 2.5854683
43.903217 56.781815 2.8258786
45.413776 56.803905 2.6106811
45.764687 56.845051 2.8564
46.783279 56.772461 2.7083786
47.120785 56.762463 2.6234181
90.613579 56.779449 2.5162001
32.783234 57.02549 2.8526227
38.398666 57.057236 2.8910441
42.386177 57.244152 2.8148866
42.668514 57.260426 2.7695737
44.270782 57.077229 2.8552361
46.946796 57.0345 2.7249055
47.157284 57.156185 2.8100555
90.454216 57.289532 2.547842
90.530289 57.035347 2.5318286
38.826248 57.739414 2.8872278
39.385544 57.773251 2.8175442
42.429558 57.798962 2.8483341
42.604488 57.679295 2.8104694
90.259666 57.788803 2.5776224
90.641571 57.531143 2.5752661
38.363514 58.180302 2.9816678
38.807137 58.344326 2.9374225
44.392567 58.190205 2.9108207
90.290497 58.03867 2.5987072
90.698891 58.28513 2.6372778
34.626736 58.831238 2.8219948
38.580963 58.644955 2.9911571
90.788292 58.664143 2.6717842
91.100571 58.923485 2.7072685
34.179871 59.402248 2.9106598
37.358063 59.452106 2.616982
38.177219 59.030483 2.5053201
91.196526 59.24807 2.7382171
37.404537 59.742798 2.6370275
91.292816 59.764244 2.785284
37.447639 60.239376 2.6752174
91.392654 60.149414 2.8220949
91.756317 60.429268 2.8625789
37.427879 60.599213 2.7081177
37.324524 61.488411 2.7961864
32.149452 61.704052 2.5085442
36.996971 61.864872 2.8604527
37.459526 61.553818 2.7895198
32.182819 62.28867 2.5546591
31.251549 65.338921 2.8633387
32.571918 65.427589 2.7945857
32.441814 65.89164 2.8415017
32.581718 65.716568 2.8185616
32.226326 66.493965 2.9052536
32.6166 66.129715 2.8517246
37.383457 67.853668 2.7293534
22.870676 70.890404 2.6309526
23.007799 70.961914 2.6327391
37.870506 70.79184 2.9637215
93.715698 70.974892 2.5049932
99.345016 70.916939 2.551645
92.872383 71.366028 2.5350506
93.111618 71.221642 2.5232592
93.57972 71.157791 2.5212717
99.35022 71.087723 2.5676858
92.601372 71.719948 2.5668907
20.810804 72.26664 2.7818167
92.636253 72.258858 2.6194952
20.799765 72.772499 2.818629
92.652763 72.723167 2.6649666
92.6987 73.187622 2.7109234
92.870155 73.56131 2.7490969
92.437103 74.007767 2.7900271
93.151772 74.302277 2.8246841
93.72686 74.139618 2.8129001
37.809978 74.923531 2.5193186
38.129162 74.938599 2.5111263
93.332672 74.853966 2.881012
37.19788 75.190651 2.5546892
38.218876 75.257942 2.5297441
93.242508 75.211945 2.9162073
38.238277 75.719551 2.5597749
93.568085 75.67984 2.9655333
38.203999 76.184517 2.5915277
38.019844 76.717064 2.632097
38.621582 76.925148 2.6279597
39.360588 76.882233 2.6030116
39.622921 76.885963 2.5953445
38.257065 77.098549 2.6502006
38.810982 77.093353 2.6333385
39.142395 77.156265 2.6275125
39.81427 77.11422 2.6044393
40.090073 77.438965 2.617171
40.250969 77.636536 2.6250656
39.434196 78.030807 2.6757381
41.884331 78.080383 2.6026607
43.404259 78.426964 2.575819
39.643559 78.928841 2.7276289
43.46347 78.563583 2.5825763
43.551037 78.832008 2.596771
35.941322 79.308182 2.8642557
36.135376 79.306702 2.858417
39.774395 79.264977 2.7453344
42.163246 79.389801 2.6776285
43.664883 79.055641 2.6072237
39.605835 79.616493 2.7733202
45.499508 79.612091 2.5805097
45.582539 79.6222 2.5782876
39.541798 80.035828 2.8024204
43.271786 80.689484 2.7239447
43.760452 80.882034 2.7197664
46.280769 80.509567 2.6096923
46.732437 82.092651 2.6926677
45.22192 82.675774 2.7825341
44.672218 85.31575 2.9672258
48.990005 88.374916 2.9994349
100.27736 89.65863 2.5105262
98.918732 90.235825 2.5983157
100.58362 90.116272 2.5431619
99.963531 90.624184 2.6050396
100.30527 90.626144 2.5960755
100.77888 90.609261 2.5819254
102.32511 90.579849 2.5381825
99.82917 91.248772 2.6644907
94.952049 92.478317 2.9080279
95.065239 92.331673 2.8916316
100.20922 92.260803 2.7449074
100.57298 92.033417 2.7147329
94.869576 92.772537 2.93695
95.596451 92.53157 2.8950498
99.365143 92.854416 2.8210344
99.565224 92.646103 2.7968898
94.450485 93.26886 2.9935863
94.789291 93.193428 2.9773185
96.947464 93.401367 2.9364347
97.213318 93.257751 2.916152
97.796112 93.356003 2.9090197
98.382706 93.456413 2.9020066
99.357918 93.098846 2.8432066
26.485962 94.329391 2.538389
101.88258 95.580994 2.9977961
72.239922 98.107094 2.5858858
72.71064 98.040771 2.5589559
73.043617 98.029999 2.5421493
31.679016 103.39984 2.782701
32.052223 103.6489 2.7840562
31.867435 108.81718 2.950309
44.876213 111.09486 2.6825228
45.125099 111.86462 2.6956332
37.752342 113.87241 2.9661257
44.856804 115.18846 2.7951541
45.038208 115.32753 2.793045
47.723236 115.6999 2.7122307
48.026527 115.61516 2.699275
49.026222 115.61505 2.6634936
45.2962 116.34768 2.8123648
46.849518 116.17993 2.7555137
47.164631 116.11888 2.7430022
49.201569 116.03223 2.6683099
53.306946 116.37326 2.5202084
45.671963 116.56238 2.8057468
53.821869 116.6297 2.5062437
51.764969 119.56031 2.6660037
52.304951 119.5703 2.645159
49.71899 121.42024 2.7935081
50.174133 121.22115 2.7711518
50.725544 121.14852 2.7483408
51.106407 121.96989 2.7557077
55.97094 121.92371 2.5578778
51.322773 122.10645 2.7510188
55.321976 122.2654 2.5943294
56.672863 122.56964 2.5451145
52.420002 123.1181 2.7351208
55.85532 125.88246 2.6681943
56.336006 126.17375 2.6555564
57.0961 127.35938 2.654552
57.333061 127.53351 2.6489463
57.584858 127.73822 2.6434705
76.380249 -6.8743553 3.2916832
58.171898 23.993229 3.491708
58.342201 24.049067 3.4834855
58.436691 24.705299 3.4307353
58.574226 24.597866 3.4360604
63.459614 24.815056 3.3702395
63.671219 24.947311 3.3609283
58.663513 25.679758 3.3509481
58.886436 26.119295 3.3128352
59.196114 26.296417 3.2937326
59.559582 26.479433 3.2738307
62.888588 26.016266 3.2827237
63.000992 26.042393 3.2808075
59.431656 26.571648 3.2687917
59.794487 26.748329 3.2499859
60.054565 26.861582 3.2379138
60.843872 26.886543 3.2276006
61.700184 26.823565 3.2264998
62.223244 26.802586 3.2261615
62.517471 26.966347 3.213608
60.167534 27.122124 3.2168407
60.943634 27.171791 3.2054136
61.200882 27.243486 3.1981771
60.341747 27.672689 3.1733935
60.509342 27.980476 3.1485846
99.155838 36.36179 3.4819276
97.157104 36.975208 3.3594959
98.993622 36.641872 3.4779696
97.1978 37.13089 3.3662362
93.370476 37.999287 3.125164
93.336914 38.188049 3.1272938
91.254852 39.417381 3.014468
91.241028 39.666088 3.0195551
50.277237 40.88855 3.1599169
91.804291 41.821793 3.118176
90.520729 42.978008 3.0622258
52.415916 43.173538 3.2856374
53.597469 43.423859 3.1761146
89.778931 43.192822 3.0157099
91.858459 43.177303 3.1657689
92.155159 43.441849 3.1965613
93.994652 43.257233 3.3252201
94.138321 43.203205 3.3338885
89.780365 43.650467 3.0305953
51.707397 44.479027 3.1488709
51.735428 44.6385 3.1233089
53.29295 44.980782 3.4394236
53.712704 44.525108 3.0060833
92.700287 44.579861 3.278729
93.082855 44.750278 3.3139625
93.591095 44.874794 3.3570433
52.572857 45.397125 3.4130726
54.473316 45.909309 3.2085495
92.324722 45.591248 3.2907748
92.523544 45.822628 3.3153722
52.95052 46.451786 3.1916075
53.748955 46.23391 3.1818659
92.563873 46.022064 3.3268163
52.24641 46.75729 3.1924629
53.288498 46.846489 3.0959539
53.54401 46.879181 3.0739381
52.421925 47.218262 3.0934799
52.71133 47.298016 3.055155
53.011852 47.366508 3.0193367
53.828194 47.182632 3.0019381
52.218021 47.669495 3.0301709
34.252449 50.153717 3.0096133
38.747887 50.359291 3.0886559
39.065422 50.951065 3.0555511
113.31181 50.931263 3.1452096
38.794689 51.275726 3.1064982
39.015705 51.018082 3.0649774
47.117786 51.271843 3.3370886
113.37984 51.33934 3.176477
39.063709 51.954124 3.0859752
43.012543 51.586777 3.4120064
44.717506 51.741112 3.0552201
46.294716 51.833302 3.4854791
46.562439 51.831768 3.4182436
47.060173 51.905098 3.2882514
47.900406 51.865311 3.0910728
44.875908 52.154331 3.0118976
47.186672 52.47496 3.2055311
38.947609 52.866425 3.1373992
43.197948 52.595062 3.3600931
43.679016 52.58403 3.2565291
44.089951 52.798138 3.166312
44.768337 52.704723 3.0232522
45.783546 52.775524 3.1771011
46.368423 52.938915 3.1468506
46.553547 52.950665 3.3327541
47.16069 52.61335 3.2004044
47.590965 52.750298 3.0800362
43.494473 53.068089 3.2934241
43.553272 53.233505 3.2803535
44.291672 53.263653 3.3193574
44.544769 53.345306 3.4615557
45.249386 53.28516 3.2883632
45.776318 53.155777 3.2620528
46.419987 53.190323 3.3531392
47.442497 53.477234 3.0610533
47.590069 53.283188 3.0372953
43.555862 53.552383 3.2802076
44.459209 53.98381 3.0818958
44.647274 53.860542 3.1176474
42.778145 54.324078 3.0241404
43.807255 54.313007 3.2307541
44.276928 54.229801 3.1243055
44.59161 54.202148 3.0537758
45.318062 54.474705 3.2494326
38.878647 54.788597 3.2377255
44.727005 54.859661 3.4026363
45.358139 54.672432 3.2381485
46.200901 54.87513 3.1007257
47.284088 54.965302 3.0292046
42.191368 55.098866 3.165791
42.798573 55.004776 3.0432723
46.090939 55.217693 3.0479863
46.832645 55.38961 3.1521349
47.187649 55.248013 3.0504932
39.275383 55.842667 3.2335675
39.560532 55.734715 3.1804051
43.033741 55.567844 3.0204055
46.157784 55.633263 3.351886
46.780205 55.531654 3.1661825
47.047485 55.718002 3.0857773
39.243908 56.420952 3.2753842
43.208157 56.011063 3.0068769
45.446968 56.188313 3.2352774
45.806896 56.394947 3.1450233
46.478855 56.291382 3.2618275
46.508492 56.256435 3.2521276
47.252541 56.346184 3.0272803
39.593903 56.569763 3.2277768
42.587658 56.961422 3.1848578
43.093472 56.859165 3.0771616
43.929379 56.699272 3.2811661
45.438274 56.85088 3.2637017
45.749054 56.664505 3.4964566
46.122967 56.742268 3.072752
47.13958 56.70956 3.0697784
42.668995 57.177422 3.1828258
43.375183 57.39101 3.0555668
44.220448 57.270805 3.2458141
44.519962 57.487762 3.1890159
47.325382 57.185204 3.0297403
36.691299 57.507145 3.145225
37.490814 57.886013 3.0711839
39.497799 57.943748 3.3431978
44.509216 57.994476 3.2284265
31.963575 58.444744 3.0406651
38.975986 58.172073 3.4474154
39.274979 58.209545 3.4011359
43.144516 58.49308 3.1871557
44.312798 58.197166 3.2914751
38.364075 58.567291 3.0128093
44.194466 58.513184 3.3463953
32.021687 59.177368 3.0944991
37.404472 59.437653 3.2100039
38.186504 59.047016 3.0756669
46.762001 59.4505 3.4050965
47.097206 59.212883 3.2713168
32.062904 59.715225 3.1349723
37.438713 59.758503 3.233613
46.641434 59.641388 3.467643
37.484764 60.202137 3.2672362
37.507034 60.340015 3.2768307
37.474304 60.614048 3.3061852
37.607616 61.458046 3.3689814
32.227539 61.64098 3.2839713
33.447906 61.711468 3.1764953
37.615334 61.544235 3.3763638
32.219994 62.231457 3.3368275
25.391916 64.296753 3.116293
25.439669 64.775162 3.1532247
37.677837 64.742348 3.0706332
25.469591 65.244492 3.1905713
25.489065 65.647339 3.2230923
25.57995 65.871437 3.2365801
25.664776 66.252533 3.2636342
25.679478 66.570663 3.2895331
31.915077 69.973511 3.2238674
32.181831 69.973854 3.2088122
32.696957 69.939941 3.1767397
32.82761 70.210419 3.1931019
32.883938 70.621864 3.2261174
32.689964 71.036751 3.2735853
33.931595 74.270851 3.4931972
34.103989 74.365044 3.4922483
35.752831 74.24369 3.3913527
36.23222 74.209381 3.3622346
36.694225 74.190407 3.335511
38.11145 74.077667 3.2489614
37.901363 74.909157 3.3364182
38.167027 74.92231 3.3234723
17.485592 75.489456 3.0970759
17.90736 75.446419 3.0833681
18.721663 75.296471 3.0520947
37.323406 75.204872 3.3944025
38.262463 75.296692 3.3528423
44.344269 75.34639 3.0437632
44.507843 75.407402 3.0413821
15.288614 75.788177 3.1737089
38.293873 75.807533 3.3982539
44.498055 75.566238 3.0568829
44.684662 75.653793 3.0559113
15.307007 76.025475 3.1903059
15.55518 76.067284 3.1870756
38.288223 76.116417 3.4270601
39.266079 76.311806 3.3938131
39.811199 76.139656 3.3494015
40.137749 76.335434 3.3506458
42.637802 76.493179 3.2374547
43.061729 76.455048 3.212518
39.312424 76.645767 3.4224
