# .PCD v0.7 - Point Cloud Data file format
VERSION 0.7
FIELDS x y z
SIZE 4 4 4
TYPE F F F
COUNT 1 1 1
WIDTH 1611
HEIGHT 1
VIEWPOINT 0 0 0 1 0 0 0
POINTS 1611
DATA ascii
48.760929 88.229736 2.8860791
99.417679 88.024208 2.5396712
99.526917 88.295135 2.5621576
47.753548 88.849915 2.9567285
99.675964 88.696625 2.5957422
101.13615 88.536591 2.55427
47.190746 89.223633 2.9977527
48.382355 89.080521 2.9526167
48.679504 89.034523 2.9405651
99.794563 89.084389 2.6286702
48.724731 89.853195 2.9920497
100.33296 90.477844 2.7451074
99.891602 90.753983 2.7785258
100.1815 90.597267 2.7588105
100.05085 91.185242 2.8147991
103.91209 91.68364 2.7876883
100.33829 92.384949 2.9188044
100.65215 92.119331 2.8885918
101.27808 92.171738 2.8815155
99.813751 92.839241 2.9703538
100.18437 92.740501 2.9542351
72.763664 98.07814 2.6313384
73.145599 98.040131 2.6127138
31.328941 102.99007 2.7158604
31.708738 102.96384 2.7116013
31.900927 103.0891 2.7143152
32.069412 103.28628 2.7197235
30.114292 108.56967 2.9243283
30.512806 108.80054 2.9282982
31.974609 110.32098 2.9638951
44.779846 110.90327 2.7499847
44.862652 111.87823 2.7773092
44.673786 115.24866 2.8833177
47.348366 115.41751 2.8177242
47.82449 115.33408 2.8019552
48.023598 115.21039 2.7926691
52.433529 115.39204 2.6634095
52.616985 115.45944 2.6593688
46.452259 115.8179 2.8540864
47.6157 115.53648 2.8138115
48.236099 115.88683 2.8066177
49.062408 115.99811 2.7859251
52.882843 115.67111 2.65679
53.168938 115.86574 2.6529734
55.024971 115.99753 2.5930817
44.786003 116.31029 2.9123306
45.26107 116.28978 2.8995423
46.806683 116.0086 2.8501613
53.726604 116.38468 2.6493733
54.746334 116.26454 2.6106954
55.306717 116.04478 2.5844908
44.17931 116.9855 2.9478626
45.579895 116.60056 2.9005578
54.47683 116.63001 2.6308072
54.106796 117.27509 2.6624963
52.139664 120.16054 2.8128252
50.396034 120.95729 2.8915634
59.237137 120.99426 2.5837522
49.44899 121.34003 2.9317732
49.7654 121.22272 2.9187307
50.081451 121.09194 2.9052281
50.790619 121.27119 2.8884878
57.752831 121.4869 2.6549969
58.820892 121.2241 2.6066482
59.198898 121.3924 2.5969939
56.010986 121.7721 2.7274144
57.808037 121.81776 2.6626735
58.254375 121.77347 2.6444941
58.64595 121.87978 2.6327214
59.453342 121.60374 2.5933549
59.750561 121.6254 2.5823562
51.256168 122.20303 2.9011385
56.87991 122.47818 2.7165728
58.278023 122.03469 2.6513176
60.176079 122.4764 2.5907924
49.152325 122.6016 2.9778333
51.654865 122.56302 2.8989673
57.200417 122.65363 2.7099166
57.672318 122.70119 2.6937726
57.279285 123.15562 2.7217691
61.015705 124.31935 2.6120243
61.680023 125.21322 2.611805
62.004368 125.1441 2.5965564
62.899078 126.6861 2.605788
65.475471 126.94057 2.5042853
56.929249 127.3248 2.8572171
64.379982 127.38125 2.5645514
64.69841 127.20539 2.5457015
65.136391 127.05519 2.5223916
63.843685 127.65878 2.5955126
64.17392 127.54095 2.5780735
91.21714 23.803783 3.2539237
91.24968 24.566864 3.2516816
86.839539 26.095467 3.0168478
86.925125 26.989613 3.0142469
90.47905 30.585884 3.1998994
89.368652 31.335772 3.1358409
89.937164 31.490273 3.1699054
87.2752 31.896875 3.0148189
88.508194 31.868441 3.0861721
90.077797 31.804939 3.1793363
87.66687 32.393509 3.0376828
89.952255 32.337944 3.1737113
90.077827 32.447021 3.1818261
90.624542 32.213509 3.2142208
89.912605 33.106758 3.1748664
87.651184 35.311901 3.0469017
87.694199 35.657761 3.0517435
88.269974 35.781322 3.089025
89.073456 35.849369 3.1409855
88.55352 36.047985 3.1092327
89.202332 36.133907 3.1519353
89.185921 36.698616 3.1564748
88.974731 37.223484 3.1481831
89.399132 37.201897 3.1761243
89.840599 37.359737 3.207576
90.196953 37.673504 3.2357473
90.586075 37.875984 3.2651181
90.469688 38.311127 3.2635689
90.742371 38.591522 3.2868586
91.063248 38.83773 3.3133059
91.309052 39.052288 3.3343153
91.7798 39.121948 3.3688955
92.080597 39.308464 3.3938267
92.18927 39.602104 3.407346
93.056702 39.919373 3.4766943
93.102493 40.065735 3.4832165
89.958084 41.347763 3.2818475
90.023743 41.478512 3.2893562
89.726517 42.130772 3.2818394
90.060867 42.448593 3.3136957
89.154999 42.694347 3.2525926
92.341568 42.733074 3.491426
89.333649 43.168011 3.2769372
90.196976 43.115971 3.3400044
90.626343 43.12355 3.3723691
89.995987 43.684212 3.3394866
36.945549 44.291466 3.1632411
37.015316 44.114208 3.1566484
91.406944 44.03503 3.4563532
53.01181 46.195786 3.4766874
54.50983 46.307381 3.4144454
53.899094 47.320412 3.2811208
52.955509 47.805504 3.2436349
53.132381 47.802032 3.2369246
54.338524 47.82869 3.196106
54.600067 47.997917 3.1663487
52.857433 48.208664 3.1890221
53.325127 48.252274 3.1635079
53.863495 48.322418 3.135746
54.236614 48.17234 3.1481926
54.543369 48.087074 3.1543353
52.255863 48.887348 3.1201527
52.537987 48.66021 3.1382458
53.459564 48.518398 3.1196682
53.646336 48.701477 3.0867205
52.213463 49.022598 3.1027734
52.681072 49.099548 3.0670822
53.766136 49.131081 3.498507
107.17982 49.285133 3.0266314
50.769196 49.778187 3.0946367
51.92207 49.7407 3.476768
52.137318 49.812305 3.4497662
107.09156 49.789227 3.0531533
50.253155 50.267864 3.1360455
50.981075 50.487633 3.4173181
51.113049 50.49585 3.4041793
107.12597 50.266861 3.084681
39.69976 50.518276 3.4509552
44.76889 50.863621 3.2293034
49.141586 50.603539 3.1417649
49.672092 50.938606 3.2560475
50.299046 50.508018 3.4799616
50.575256 50.536385 3.225409
51.109047 50.689304 3.3702655
107.14024 50.552311 3.10337
44.317978 51.297035 3.2692943
45.28569 51.474548 3.1070893
48.77998 51.449535 3.07495
49.356064 51.482594 3.4247963
49.758732 51.2295 3.4171054
50.333744 51.266209 3.3453248
50.53936 51.101864 3.3520937
51.162712 51.159843 3.282259
51.86478 51.473469 3.1691163
44.359306 51.613945 3.2417421
44.622082 51.668377 3.1963294
45.670372 51.76189 3.0283561
48.382782 51.826538 3.0791867
48.738159 51.730762 3.0444365
49.272839 51.587055 3.4185662
49.555534 51.592579 3.381073
51.705647 51.905003 3.1040719
44.877338 52.446148 3.1048086
45.126907 52.176765 3.082598
48.260822 52.219296 3.0479405
48.652645 52.285938 3.1195631
50.899513 52.144585 3.1341593
51.186008 52.277752 3.0831027
51.57951 52.131779 3.0738945
43.465557 52.583397 3.3336837
44.832169 52.600693 3.102361
46.366779 52.71278 3.2884107
46.518547 52.635468 3.2704949
47.498863 52.625912 3.1126168
47.79723 52.827766 3.1589611
48.158089 52.708157 3.0925202
48.680908 52.698395 3.3255537
50.478729 52.813564 3.0640059
50.511181 52.80114 3.062412
45.297119 53.427933 3.4148035
45.862015 53.211121 3.3290398
46.34724 53.449856 3.2186775
47.154079 53.16954 3.1082501
47.673428 53.294628 3.4051545
48.276623 53.272915 3.3036501
48.558826 53.069157 3.2876704
49.516792 53.007633 3.1539624
50.258465 53.179482 3.0283933
43.285713 53.704762 3.3120401
46.349907 53.516785 3.2117219
47.243793 53.745758 3.3447843
47.631596 53.819244 3.3010571
43.135586 54.115379 3.3231471
45.308033 54.468639 3.3275597
47.467873 54.026432 3.3429651
47.531815 54.024467 3.3310308
42.608162 54.977165 3.3961976
43.142075 54.69455 3.3013873
44.706528 54.675163 3.4356983
45.300644 54.519272 3.3251798
46.203739 54.908264 3.4989209
46.967926 54.887398 3.3357663
47.122921 54.938019 3.2972593
47.573364 54.875721 3.212678
38.614944 55.168526 3.0198667
39.311985 55.459164 3.4907372
42.390465 55.159328 3.4345567
42.753597 55.156731 3.3631742
43.197311 55.485691 3.2677524
43.80389 55.191696 3.158829
44.619698 55.26498 3.0024161
46.354435 55.453835 3.1902671
46.988968 55.295723 3.2843015
47.355743 55.22625 3.2148812
47.533806 55.125343 3.1897178
39.383442 55.612934 3.4801831
39.677532 55.994461 3.4336426
45.598289 55.84491 3.1707313
46.140873 55.816479 3.1191111
47.297092 55.699535 3.1725512
38.612076 56.429527 3.0614243
39.353439 56.425587 3.4999912
39.574448 56.001919 3.4521837
43.899261 56.483322 3.1065829
45.814049 56.429653 3.1408455
46.052715 56.334991 3.0430706
47.34111 56.329208 3.0950475
38.414959 56.830513 3.1061745
38.703228 56.749886 3.0599828
39.419334 56.599182 3.4918761
42.766548 56.80632 3.33373
43.950089 56.672516 3.1938462
44.091099 56.615932 3.4011726
45.242859 56.590919 3.2063293
45.720047 56.631226 3.4554777
46.248493 56.798115 3.1635127
47.197544 56.686676 3.0922041
38.41489 57.097015 3.1170671
38.679554 57.247894 3.0836136
42.653427 57.098503 3.3561101
43.502995 57.284344 3.1778901
44.269695 57.145966 3.2144215
46.966118 57.060051 3.1135726
47.218143 57.07019 3.0520182
31.999962 57.690842 3.345819
32.013092 57.791492 3.3506851
38.29958 57.755871 3.1636183
38.768871 57.677715 3.0887902
39.121365 57.62775 3.0332336
44.461563 57.964523 3.3429279
44.517521 57.915565 3.3302538
32.023895 58.008675 3.3633332
33.374413 58.398857 3.2264643
38.236858 58.476639 3.2087142
38.691578 58.190258 3.1246712
43.263912 58.261402 3.2311642
43.600029 58.151478 3.2545021
44.412064 58.24799 3.3508711
44.536896 58.19339 3.3209558
37.96534 58.635036 3.2588317
38.149506 58.764019 3.2374783
37.438206 59.380421 3.3827882
37.49086 59.677059 3.3927193
37.505028 59.851311 3.4014304
37.493824 60.441811 3.4418981
37.520298 60.191914 3.4210849
36.449127 60.595833 3.006391
37.478523 60.553135 3.4518967
92.287476 60.709202 3.0272901
37.633579 61.376362 3.4866555
25.86628 61.963737 3.4242063
33.475746 61.563057 3.4416885
37.662033 63.453564 3.0886269
37.674046 63.508205 3.091995
37.736973 64.611519 3.1854537
31.304874 65.264893 3.2342544
32.418289 65.688171 3.1763949
32.589863 65.747803 3.1670752
31.348101 66.323891 3.3259633
32.628258 66.021973 3.1886466
37.840534 66.348129 3.3456068
108.56165 72.836311 3.0131557
33.815552 73.918686 3.0790834
34.840324 73.896568 3.0270281
35.192425 73.888054 3.0091112
32.353153 74.189293 3.175308
32.77092 74.193398 3.1551783
33.164761 74.155792 3.1324646
35.189034 74.127556 3.0311475
37.15686 74.905113 3.0079091
28.337528 75.357582 3.4785135
29.632114 75.482964 3.4260209
37.162834 75.081985 3.0240111
38.226528 75.450928 3.0079153
44.254013 75.37896 3.2873716
93.504997 75.466835 3.0038772
29.267204 75.518097 3.4471459
38.216991 75.780075 3.0391185
44.482376 75.635826 3.3049495
44.634373 75.760345 3.311018
93.608124 75.883163 3.046566
94.190239 75.838104 3.0514798
96.538223 75.956642 3.1012437
38.068966 76.19751 3.0851221
39.33831 76.282951 3.0339963
39.666069 76.402817 3.0301538
40.283592 76.462967 3.007448
42.991924 76.411156 3.4981487
43.139011 76.364868 3.4827704
37.784718 76.749298 3.1501408
38.127293 76.782959 3.1373053
39.828056 76.602982 3.0416057
40.268372 76.657562 3.0265934
44.111126 76.927269 3.4912503
45.303661 76.721848 3.3920112
95.228455 76.671196 3.1504004
37.953201 77.199615 3.184571
38.061207 77.200035 3.1795905
39.81501 77.27179 3.1055839
40.806297 77.457153 3.0781903
44.476845 77.13076 3.4944017
44.537827 77.146957 3.4927225
45.322403 77.220383 3.4547877
96.076263 77.116684 3.2080452
39.946632 77.545654 3.1255569
40.087639 77.652748 3.1293349
40.961067 77.540207 3.0791407
41.17643 77.543282 3.069761
39.714901 78.350395 3.2126245
42.44772 78.334351 3.0893087
42.918976 78.054588 3.0417325
43.456619 78.254623 3.037724
43.528122 78.381607 3.0469322
36.313072 78.649292 3.3971777
39.254658 78.99894 3.2952175
42.91769 78.740639 3.1080511
42.283188 79.416168 3.200865
43.308224 79.185463 3.1342809
45.725357 79.386063 3.0522351
47.234386 79.783997 3.0302944
46.268646 80.389404 3.1285076
42.146255 80.947037 3.3549049
43.214733 80.594093 3.2750223
44.0746 80.829948 3.2617831
46.844116 81.837677 3.2480407
49.769855 82.449341 3.1965923
48.844376 83.007553 3.286489
49.169914 83.433121 3.3164504
48.885548 83.665619 3.3501379
49.033192 83.527481 3.330915
50.046219 83.884567 3.3288407
47.219822 84.414383 3.4876673
49.791481 84.46347 3.3956363
35.280739 85.90152 3.0898716
38.906937 86.09108 3.0164182
39.030544 86.153831 3.0175736
40.901901 86.95578 3.0237691
41.100548 86.98954 3.0208743
40.853851 87.262718 3.0453372
41.696442 88.935638 3.133662
36.364441 89.165436 3.2845471
36.506382 89.262726 3.2876132
45.526825 89.449234 3.0611124
46.433445 89.079422 3.010756
46.616467 89.140869 3.0093715
47.270916 89.303825 3.0005593
45.601238 89.545868 3.0652494
47.517696 89.504929 3.0062008
45.719013 90.225281 3.1059883
31.430313 90.548698 3.4944971
35.631195 90.970024 3.4233928
43.088554 90.69648 3.2113242
44.877708 91.283539 3.1990931
76.401459 91.482796 3.3279088
75.799789 91.873749 3.3792617
76.17289 91.626526 3.3469298
39.15757 92.243034 3.4187691
44.537224 92.047821 3.2585933
75.553749 92.082382 3.4050047
94.81958 93.410515 3.1200202
95.275124 93.310555 3.1017978
97.782379 93.289207 3.0507944
98.968651 93.430161 3.0407648
99.171227 93.214203 3.0170474
99.648979 93.181152 3.0048256
93.373344 93.755768 3.1807594
93.676315 93.549088 3.1555471
94.819733 93.737839 3.1502843
96.74646 93.69989 3.1088057
97.262825 93.615257 3.0909054
97.632675 93.647423 3.0866525
98.863449 93.590233 3.0574946
93.403458 94.111641 3.2131715
95.085754 94.281372 3.1952965
92.211441 94.837753 3.3047936
92.575638 94.682396 3.2829251
93.538422 94.905434 3.2841871
51.955059 95.384079 3.2452984
52.062012 95.444946 3.245688
92.238846 95.321426 3.3493211
93.418076 95.027283 3.2979491
51.299572 95.706024 3.2874928
51.601418 95.517227 3.2654822
52.329391 95.90303 3.2663126
52.681915 95.957756 3.2581141
92.439354 95.842575 3.3938377
52.154461 96.036171 3.2806692
52.500122 96.068512 3.271291
92.291557 96.30616 3.4401767
91.979767 96.742981 3.487463
111.49771 96.876511 3.1173894
111.59001 96.658531 3.0958636
55.935268 98.312004 3.2984321
56.436047 98.735764 3.3081529
26.388641 110.22771 3.0165405
8.6365585 110.76773 3.0828826
26.542868 111.11566 3.0472531
23.759789 111.62891 3.0866811
24.210089 112.433 3.1130679
27.321144 112.98698 3.1067171
23.560522 113.13635 3.1434183
27.533716 113.02898 3.1061273
35.458355 114.15266 3.0403538
36.283283 114.07181 3.0238726
33.668468 118.03998 3.1950572
33.328369 121.28946 3.3054142
34.073196 122.08408 3.3180976
44.19696 127.85616 3.2728078
54.200615 -6.1807785 3.8385146
57.41769 -4.5773468 3.6780956
56.474968 -3.8290634 3.6738179
58.249527 23.384258 3.9161162
57.724594 23.798025 3.893599
58.237736 23.509201 3.9069555
58.349136 24.709042 3.8161154
63.476013 24.724117 3.7968161
63.642696 24.623985 3.8049729
62.873207 25.182699 3.7611251
63.170441 25.095879 3.7687898
58.39941 25.81406 3.7333961
58.715218 26.306055 3.6931248
59.208527 26.401806 3.6810026
59.704018 26.442837 3.6739063
61.961395 26.498676 3.6644161
62.250275 26.352501 3.6756692
59.190495 26.53385 3.6713786
59.941109 26.903694 3.6386132
60.067646 26.906521 3.6377113
60.916405 26.816885 3.6412773
61.281563 26.913593 3.6340337
61.736637 26.620583 3.6552916
62.208839 26.535213 3.662504
60.462387 27.481842 3.5942144
60.671673 27.072105 3.6233265
61.252632 27.045689 3.6244681
60.198395 27.548349 3.5903604
101.13007 34.661732 3.9519494
95.82869 35.343822 3.5883553
39.662537 41.251175 3.8047278
92.947968 42.596992 3.5336974
97.233582 43.297195 3.8862185
92.718407 44.217388 3.5628693
92.832352 44.574909 3.5828273
93.200668 44.73896 3.6168518
94.962875 44.637688 3.7521286
95.334648 44.820877 3.7878466
96.379982 44.642128 3.8646519
53.079384 45.469246 3.5802274
95.69593 45.259811 3.8321352
52.622269 46.134136 3.5028646
95.226616 46.230587 3.8304093
51.95237 47.132534 3.9459479
52.051918 47.09066 3.9474714
54.345119 47.857914 3.7162573
54.541809 47.936623 3.698519
52.210026 48.280361 3.722543
53.471909 48.489914 3.6248407
53.590981 48.433708 3.6310272
54.454514 48.113262 3.6678612
52.399628 48.828415 3.6122823
52.691418 48.779015 3.6057603
53.285496 48.787586 3.5776465
53.75938 48.73848 3.5705237
54.112171 48.582138 3.5894578
52.891388 49.036572 3.549072
53.114532 49.02174 3.5418358
53.861038 49.013935 3.5171494
51.773304 49.636211 3.505847
39.308594 50.096703 3.5201113
49.838669 50.293804 3.566663
48.798008 50.957386 3.5851266
45.273026 51.15963 3.6341372
48.838551 51.057381 3.5633624
32.25935 51.76812 3.8434017
38.772621 51.937458 3.5774255
45.755219 52.366024 3.892626
47.378876 52.700077 3.5413795
47.529652 52.698963 3.5148885
46.546558 53.143021 3.6369405
38.447426 53.937439 3.6280935
38.551964 53.823082 3.6095452
43.433975 53.9627 3.7505169
43.919662 53.671875 3.6687462
45.857155 53.529457 3.7292838
38.898392 54.022224 3.5507009
44.168613 54.421356 3.5654259
45.29512 54.020458 3.7957451
39.20005 54.653934 3.5020878
43.261002 54.917717 3.7324769
44.291004 55.123592 3.927778
91.41301 55.435707 3.9555001
41.4366 55.591125 3.6189804
41.515278 55.550556 3.6034234
45.141617 55.685318 3.6732516
37.497116 56.465874 3.8392568
37.933792 56.444366 3.7586701
39.228531 56.433483 3.5227602
43.274147 56.457901 3.6643724
43.87471 56.411385 3.9451654
32.893181 56.92202 3.9486258
37.355762 56.887886 3.8779559
37.824162 56.712685 3.7862263
38.298019 56.686749 3.6985769
38.676842 56.791683 3.6319716
39.180092 56.700218 3.5377545
43.389091 56.838371 3.6261499
43.860291 56.684879 3.7550511
44.212925 56.671787 3.8417749
45.480747 56.600513 3.5179498
45.522354 56.588692 3.5083015
34.826855 57.237442 3.6683547
39.30661 57.399029 3.533689
43.353897 57.056595 3.6289461
44.209171 57.416485 3.8063023
33.111721 57.80785 3.9623854
33.761173 57.522369 3.846602
38.955322 57.554855 3.6035426
39.306641 57.86261 3.5488091
43.713146 57.742615 3.730083
44.243954 57.743114 3.7844429
33.807446 58.252281 3.8798423
34.413918 58.451733 3.7973845
38.64764 58.346558 3.6904833
39.206596 58.157391 3.5782266
43.315311 58.157913 3.6229744
43.707069 58.174992 3.7201235
44.051914 58.300365 3.8221428
44.575047 58.282661 3.6756177
34.309044 58.534142 3.8184409
38.44598 58.87439 3.7518718
38.583782 58.633839 3.7148323
37.472313 59.340405 3.9604907
37.520393 59.176998 3.9426599
40.275284 59.271431 3.9172237
37.48996 59.680531 3.9759638
37.505184 59.880871 3.9845753
40.296219 59.75737 3.9332426
32.150612 60.348179 3.5102215
37.52729 60.119568 3.9946301
40.322151 60.260571 3.9522026
107.68864 60.280296 3.8216572
32.189041 60.718693 3.5332658
36.399456 60.604973 3.6247256
36.540005 60.530468 3.5974832
40.349926 60.752956 3.9737258
107.70936 60.746021 3.8596134
40.375729 61.170593 3.9940777
107.74467 61.313629 3.9068773
39.000099 61.68428 3.8171616
107.76807 61.786026 3.9462814
25.028002 62.241993 3.5194392
38.405785 62.440228 3.9927309
107.80182 62.158142 3.9784083
25.062084 62.733253 3.5569134
38.466282 62.621437 3.9964147
38.597061 62.828053 3.9891264
25.374821 63.218445 3.5702286
37.778595 63.435017 3.6346502
38.812984 63.231018 3.9838557
25.416189 63.75378 3.611716
37.493816 63.984013 3.7305722
37.572437 63.730949 3.6944373
38.938629 63.506023 3.9853549
39.132088 63.767189 3.9735055
25.44598 64.289406 3.6547747
37.488472 64.043793 3.7371154
37.537506 64.287811 3.7530527
39.400745 64.164001 3.9617856
39.577507 64.417702 3.9543982
25.480001 64.825981 3.6980572
37.756687 64.738991 3.7635782
39.811062 64.747505 3.9455423
40.056747 64.996422 3.9263861
25.486526 65.117027 3.7227955
25.510927 65.361061 3.742039
32.576866 65.465195 3.8912883
37.743618 65.245819 3.8178873
39.999146 65.05629 3.9442267
40.276985 65.266998 3.9158471
40.521069 65.478752 3.8945982
25.608368 65.690292 3.7626209
32.470535 65.66806 3.9235642
32.612194 65.798988 3.9191041
37.744812 65.55571 3.8505325
40.580723 65.750465 3.9166567
37.890781 66.327003 3.9130745
40.613232 66.248154 3.9735775
37.837891 66.544235 3.9459424
37.430435 67.661011 3.534734
37.652477 68.903412 3.6492548
31.9217 69.82872 3.6116209
32.246277 69.80497 3.5821097
32.812645 69.844635 3.5387642
32.820087 70.265961 3.5805047
40.76083 70.151726 3.9868653
37.865883 70.635521 3.8326867
38.047047 70.680038 3.8179622
37.833145 71.185692 3.904912
38.175972 71.785217 3.9434676
19.680958 72.214348 3.6346769
19.5604 72.754288 3.6877232
18.610601 73.312241 3.7843421
18.624716 73.57193 3.8062832
38.101074 73.901855 3.5474384
18.650497 74.105194 3.8515968
33.162678 74.162445 3.9613063
33.523891 74.188576 3.9354818
35.219353 74.113602 3.7937334
35.732273 74.09314 3.751421
36.240898 74.064438 3.7087014
36.712345 74.048737 3.6704748
24.430986 74.768761 3.6199429
24.786236 74.736633 3.5993547
26.295372 74.709991 3.5217721
37.190865 74.893082 3.7295363
37.822708 74.762016 3.6668308
38.140976 74.81517 3.6490726
26.264954 75.215599 3.5684361
26.807114 75.385933 3.5567799
27.222527 75.412003 3.5385392
27.746389 75.433907 3.5145893
37.209404 75.0606 3.7473021
38.227764 75.236168 3.6913393
43.439865 75.138535 3.8886664
43.788559 75.283272 3.8801808
44.261223 75.261093 3.8359575
44.682034 75.237129 3.7966559
38.254238 75.765739 3.7511072
40.277328 75.827225 3.6122575
44.096146 75.589722 3.9007266
44.795841 75.656181 3.8524508
45.350273 75.806084 3.8310516
38.916706 76.165688 3.7498987
39.199463 76.276566 3.7427211
39.693825 76.1278 3.689652
40.296101 76.139626 3.6484189
40.574104 76.376877 3.6575603
44.713017 76.203499 3.9449289
45.403191 76.283752 3.9024971
39.949219 76.501854 3.7163794
40.337337 76.715424 3.7150457
42.355579 76.773613 3.585048
42.706238 76.559624 3.5353663
45.403812 76.60067 3.9528005
22.461519 77.159042 3.9310937
40.411877 77.109772 3.7576704
40.549828 77.314384 3.7731256
41.329525 77.145439 3.6994865
41.53511 77.399673 3.7169833
44.1744 77.340927 3.5397425
44.52824 77.279938 3.5102391
46.643967 77.459045 3.9991252
39.27755 77.508575 3.8847535
40.39521 77.761185 3.8382587
41.506363 77.604134 3.7441521
43.818081 77.619026 3.5970883
47.099674 77.568176 3.9853175
40.087784 78.232941 3.9169018
46.195282 78.257271 3.5385442
46.747746 78.396568 3.5262341
42.904182 78.92028 3.8187754
43.917286 78.612488 3.71732
46.837093 78.991447 3.5992792
43.744991 79.103729 3.7904718
45.918808 79.198845 3.6764915
46.934189 79.158646 3.6160455
47.078686 79.398468 3.6399248
44.548409 80.930405 3.978569
47.322933 81.424301 3.894706
46.658764 81.511459 3.9400399
47.358307 81.660416 3.9241917
47.435963 82.120583 3.9813125
49.896767 82.433258 3.9089711
50.237976 82.342331 3.88219
50.165611 82.580551 3.9172039
101.41574 83.848755 3.9714575
102.46976 83.809975 3.9824862
102.73154 83.720474 3.9770336
101.26251 84.070099 3.9922335
44.330822 85.063904 3.6658504
44.55127 85.343414 3.6844311
40.300865 85.940231 3.918431
39.810837 86.227989 3.9672115
40.38208 86.076355 3.9282351
40.760181 86.373764 3.9412503
43.00581 86.322327 3.8431356
40.870445 86.573296 3.9560699
41.241219 86.834328 3.9660523
41.666222 86.889084 3.9537296
42.05201 86.751091 3.9242837
42.759773 86.870369 3.9069095
43.318619 86.867722 3.8838992
41.745888 87.054108 3.9665649
42.87608 87.314835 3.9457405
46.743229 87.415565 3.8026824
42.895306 87.513077 3.9644053
46.784325 87.784805 3.8376241
47.107555 87.813538 3.8281233
48.427921 87.932571 3.7901897
47.463173 88.302582 3.8630428
47.707012 88.492905 3.8727014
48.726887 88.068985 3.7926266
49.171623 88.179657 3.7872083
45.469765 88.802124 3.9889057
45.602924 88.863022 3.9897437
47.228546 88.785355 3.9197283
49.713852 88.551117 3.8042808
67.982986 91.484444 3.5332918
68.11145 91.487473 3.530252
67.850197 91.728455 3.5605831
68.374367 91.621002 3.5364735
68.740417 91.835167 3.5479157
67.685471 92.285271 3.6193175
69.159676 92.145798 3.5674212
67.469994 92.502434 3.6462333
92.031357 97.145325 3.5240588
92.148888 97.74131 3.5774593
92.302322 98.3797 3.6341231
92.241623 98.701462 3.665601
47.483452 99.408997 3.6472561
47.739792 99.420174 3.6400268
50.206413 99.491669 3.5665996
47.953842 99.672394 3.6496384
48.071747 99.730164 3.6496851
50.313381 99.769516 3.5810397
93.030197 99.826965 3.7547324
41.670559 100.82001 3.9115891
54.884071 101.90771 3.5662138
55.150234 101.91383 3.5574431
54.409748 102.26234 3.605279
54.610855 102.23946 3.5969281
55.797009 102.28027 3.5586257
56.249065 102.27004 3.5422015
55.849697 102.6991 3.5837426
47.781334 103.35108 3.8922887
48.135944 103.93262 3.9186389
47.901619 104.03043 3.9323184
52.842636 104.78047 3.8202364
53.129906 104.93201 3.8203466
52.8358 105.24521 3.8503535
53.284882 105.14484 3.8288229
74.516251 17.934921 4.4749165
74.812927 18.103308 4.4749131
75.141998 18.205341 4.4803171
74.705322 19.678709 4.3773041
76.359268 20.212097 4.4106493
76.686661 20.47818 4.40944
76.754173 21.201813 4.37218
78.404037 21.32272 4.4413052
76.848106 21.696293 4.3491859
77.100647 21.584019 4.366642
73.667816 22.439453 4.1766701
74.519951 22.324089 4.2160211
75.069534 22.118933 4.2497592
76.984337 22.426403 4.3157883
73.777924 22.725948 4.1640558
77.321861 24.293282 4.2336035
76.99424 25.105392 4.1754742
77.236938 25.150869 4.1854477
77.599319 25.294247 4.1968813
79.090088 25.290325 4.2774935
77.762268 25.734703 4.1836238
78.356781 25.950748 4.2052584
79.124321 25.785801 4.2559714
82.955536 25.677967 4.4940095
78.034515 26.018665 4.1843271
78.724838 26.73941 4.1886115
79.020752 26.845404 4.200799
79.519226 26.805473 4.2318892
81.347748 26.922249 4.3392434
79.331795 27.232689 4.2015858
79.588722 27.477703 4.2060575
81.341629 27.181824 4.3280368
81.582466 27.128742 4.3457088
82.495964 27.259678 4.4003258
82.875458 27.285164 4.4247727
79.76796 27.736441 4.2056918
83.25737 27.574509 4.4397497
79.946487 28.101068 4.2010374
80.094696 28.276863 4.2028861
106.52838 35.992805 4.3846045
106.52715 36.348148 4.3944092
106.53508 36.901657 4.410831
106.54713 37.234756 4.4215465
50.424606 46.554165 4.1627436
40.915604 47.301445 4.073863
45.194653 51.372845 4.1304374
38.210194 51.859879 4.3377237
38.455048 52.820892 4.2665758
38.596077 52.691193 4.2414236
38.726673 53.1982 4.2048383
44.273697 53.158676 4.11514
39.159267 54.316631 4.0999475
38.396042 54.723 4.2543955
38.578651 54.817932 4.2157731
39.019684 54.628551 4.1254511
43.236942 54.758743 4.2180285
43.658398 54.891331 4.1026597
38.856392 55.055061 4.1568451
43.437698 55.151905 4.1387248
38.839298 55.835537 4.1607933
39.277145 55.876877 4.0679765
39.565659 55.950027 4.0069447
93.504105 55.763489 4.1578617
38.976692 56.394131 4.1352258
39.324986 56.187424 4.0590305
39.577065 56.0112 4.0046721
93.303329 56.427082 4.182272
38.695385 56.866924 4.2020831
39.278656 56.716919 4.0736818
93.415894 56.622219 4.2047243
37.354965 57.052742 4.4990835
38.913376 57.406952 4.1643558
39.339149 57.312195 4.0694242
39.517357 57.010399 4.0256681
91.097893 57.094482 4.0319753
91.782379 57.261005 4.1030731
32.180183 57.825645 4.107379
37.561428 57.547058 4.4659204
38.958767 57.757141 4.1623783
39.080902 57.829506 4.1372824
43.266369 57.715107 4.0570235
91.3507 57.857792 4.1050181
91.686867 57.543224 4.1134195
34.839348 58.147209 4.4005766
36.953812 58.397484 4.011992
38.446911 58.354744 4.2935348
38.766441 58.032032 4.2123246
39.35326 58.419949 4.0934939
43.272472 58.165218 4.0454459
91.360008 58.25803 4.1332321
38.730461 58.597763 4.238533
39.223267 58.568352 4.1273403
40.30854 59.263428 4.4085646
40.336193 59.750153 4.4186645
32.207619 60.371094 4.2662296
37.545383 60.376423 4.007165
40.360691 60.251694 4.4342036
25.190252 60.889664 4.3982582
32.222641 60.664139 4.2850046
33.410671 60.942127 4.1186161
37.656013 60.753517 4.0105419
40.386112 60.767239 4.4544911
33.429996 61.365093 4.1474557
37.809742 61.234314 4.0142913
40.408611 61.301334 4.3424211
25.304062 61.975239 4.4706964
25.98922 61.798538 4.3728862
33.470642 61.788143 4.1740785
37.938808 61.609333 4.0169044
38.054871 61.874645 4.0148139
40.415703 61.698494 4.1604738
25.300728 62.170185 4.4870033
33.484089 62.157848 4.2016444
33.501778 62.36137 4.21559
38.207962 62.206669 4.0117784
40.428272 62.249435 4.0621576
107.80552 62.441006 4.0017929
33.518269 62.758995 4.2464352
38.356438 62.543259 4.0109997
40.455879 62.770401 4.1006718
107.8075 62.733376 4.0260143
33.547115 63.244465 4.2840204
40.484791 63.268959 4.1408291
107.85172 63.192997 4.0665851
33.559174 63.5555 4.3098311
40.498871 63.680073 4.178854
40.515636 63.776825 4.1852903
107.88403 63.754028 4.1153946
40.531879 64.272034 4.2355404
107.91467 64.227585 4.1571569
40.566708 64.752014 4.2833695
107.9095 64.511223 4.1810799
109.95142 64.882469 4.3227448
40.590004 65.240479 4.3383641
109.98725 65.277222 4.3587551
40.613163 65.757835 4.4006977
109.9884 65.670792 4.3930397
110.02605 65.958633 4.4202347
40.646919 66.255905 4.4617186
110.03144 66.25473 4.4465709
28.789007 66.979401 4.4956541
40.646122 66.715424 4.0742903
110.0476 66.650635 4.4824643
29.201986 67.207344 4.468576
29.590939 67.435692 4.4446764
40.672447 67.228607 4.0948195
29.855515 67.724533 4.4422388
30.087673 67.971985 4.4397831
40.699203 67.735764 4.1623263
30.088226 68.445107 4.4888258
37.817402 68.35817 4.1686082
40.731171 68.253891 4.2331934
31.295593 68.715675 4.3738976
31.625116 68.94986 4.3599415
37.944172 68.527664 4.1713033
38.243977 68.750702 4.1557016
38.546013 68.966751 4.1394534
40.759521 68.760757 4.3056049
31.812885 69.145668 4.3589911
32.005737 69.335236 4.3569374
38.801418 69.131409 4.1239972
39.209911 69.373047 4.0972633
40.786919 69.252876 4.3783011
32.378777 69.578339 4.3399172
32.738312 69.806824 4.3233442
39.423515 69.515938 4.0860176
39.732517 69.660156 4.0617771
40.180359 69.907997 4.0331268
40.81744 69.759926 4.4551158
32.889206 70.016472 4.3293228
40.435677 70.037613 4.0157485
40.772015 70.255913 4.1084871
40.839699 70.723053 4.0612803
40.870064 71.219444 4.1328912
40.900059 71.732315 4.2085848
94.284744 71.915588 4.1485929
94.873627 71.756775 4.1628284
38.159088 72.467552 4.0338535
40.93417 72.229012 4.2826061
94.650757 72.226936 4.1993442
38.17614 72.84465 4.0816526
40.958652 72.711838 4.3569655
96.776871 72.97702 4.385807
38.164421 73.250694 4.1368918
40.986221 73.176155 4.4290357
41.002716 73.426682 4.4681177
96.816879 73.378098 4.429368
38.248253 73.758926 4.196372
41.007393 73.546173 4.4872856
96.692841 73.746895 4.4614792
38.307232 74.261757 4.2586389
38.752197 74.418472 4.2344499
38.999748 74.512505 4.2222366
39.274296 74.58622 4.2047653
39.761173 74.720757 4.1749182
40.251286 74.837463 4.143044
40.710743 74.918175 4.1098075
41.032234 74.953949 4.08394
41.058479 75.2826 4.1292987
43.768711 75.399193 4.48488
44.449173 75.322655 4.3981657
44.882164 75.468521 4.3803115
45.049232 75.459175 4.361546
41.085819 75.753555 4.1957388
44.341587 75.596802 4.4601555
44.692829 75.723587 4.4473534
45.207718 75.619308 4.3756652
40.875324 76.432091 4.3155813
41.249115 76.437973 4.2819405
41.771992 76.405083 4.2293291
42.285385 76.198044 4.1519132
42.54052 76.170891 4.1250162
44.865158 76.063072 4.4933081
45.181026 76.224998 4.4925518
45.708687 76.397476 4.474576
40.86338 76.578377 4.3384032
41.071617 76.692764 4.336185
44.439705 76.848366 4.0683832
44.67902 76.577347 4.0064354
45.373871 76.945374 4.0100336
45.984833 76.600021 4.4877033
36.736244 77.4618 4.0611305
45.44146 77.062531 4.0235548
45.598686 77.144051 4.0246563
46.587128 77.450432 4.0017405
36.754417 77.602463 4.0763421
46.349579 77.752869 4.0677757
46.730549 77.691505 4.030983
47.225788 77.795906 4.0141401
45.917297 78.315681 4.1900563
46.118683 78.034065 4.1299219
46.66116 78.199486 4.1187248
47.417542 78.181648 4.0648236
47.75243 78.298515 4.062458
48.10371 78.466118 4.0680571
35.687595 78.968407 4.3149014
45.600929 78.823669 4.2951832
47.986202 78.903633 4.1480093
48.046814 78.541725 4.0841322
46.057941 79.216194 4.3265829
46.966133 79.008377 4.2307663
48.100288 79.047981 4.1649861
39.34428 79.833344 4.1636314
42.709789 80.730103 4.0608449
42.897156 81.301247 4.1226101
49.746613 81.440155 4.4742789
49.562988 81.516541 4.4966221
50.446262 81.619263 4.4699469
50.587193 81.578918 4.4563999
47.813492 82.720535 4.0425854
48.066772 82.841301 4.0465441
48.944489 82.966324 4.0225081
49.061623 82.931213 4.0125246
47.984493 83.143333 4.0906553
48.278309 83.209404 4.0856366
48.717926 83.144203 4.0566006
49.210312 83.318909 4.0577393
111.05208 83.164505 4.0461884
49.851128 83.75885 4.0887156
50.373936 83.558052 4.0396938
101.19152 84.333633 4.0186257
46.158932 84.618881 4.3759036
100.42316 84.777054 4.0543003
100.58556 84.54863 4.0326338
109.48427 84.817726 4.1886902
50.47052 85.444351 4.2892294
99.712601 85.438583 4.1142864
100.12762 85.241714 4.0990705
50.380802 85.500191 4.3004045
99.630371 85.794754 4.1508498
50.977703 86.076431 4.3539019
51.525787 86.499504 4.3895731
98.787552 86.45295 4.2099867
99.090149 86.309341 4.1985149
99.742386 86.139893 4.1888795
38.76973 86.737526 4.0611339
39.087475 86.786911 4.0523243
50.666878 86.958382 4.4849496
51.432659 86.594902 4.4059935
98.678436 86.692947 4.2342677
38.849598 87.488983 4.1306324
98.249657 87.174629 4.2806592
98.775146 87.044922 4.2731647
39.912331 87.55899 4.0923886
98.67157 88.245186 4.401206
99.18232 88.326019 4.4160013
40.480923 88.54422 4.1646585
43.345325 88.996666 4.091979
98.98558 88.729591 4.4573717
43.346233 89.405289 4.1321325
45.713387 89.175552 4.0163307
43.437126 89.596298 4.147295
43.822647 90.344849 4.2056866
44.011528 90.432671 4.2068815
44.675232 90.20665 4.1585279
43.492069 90.960487 4.279418
44.254166 90.674721 4.2212024
46.099602 90.977524 4.1796269
45.432327 91.669701 4.2736616
44.95261 92.789307 4.4028044
51.269768 95.673126 4.4567327
51.785988 95.873116 4.458631
52.308678 95.781296 4.4314241
51.543533 96.001099 4.4797869
52.012081 96.069839 4.4703588
52.58733 96.175125 4.4610195
72.795692 98.24099 4.0681705
73.102516 98.214912 4.0578203
102.01086 108.62714 4.3924398
102.11617 109.20576 4.4446335
102.15987 109.73083 4.4931202
75.127113 14.975761 4.6749735
80.531631 14.894199 4.8852615
81.302444 14.698586 4.9305258
75.497047 15.014332 4.6844807
79.808418 18.665249 4.6486816
79.926147 21.400696 4.5131168
83.397957 25.909214 4.5137033
83.452118 26.342453 4.5002308
84.415298 26.717091 4.5517645
84.842972 26.600901 4.5859127
85.261513 26.625015 4.6145811
89.445251 26.515022 4.9300508
89.702011 26.507847 4.9503155
90.123322 26.836411 4.9742928
86.248169 27.351341 4.6611366
88.067329 27.410522 4.7967567
84.7742 27.782604 4.5389347
85.28801 27.82021 4.5749125
85.712883 28.299627 4.5903902
86.076866 28.288349 4.6180038
87.351707 30.312416 4.6586838
87.354271 30.74678 4.647675
87.850403 30.72541 4.6888437
87.89946 31.226665 4.6807985
90.764656 32.413467 4.904191
90.741463 32.749435 4.8966746
90.338425 33.371773 4.8506823
90.108734 33.757904 4.8240962
89.942528 34.388092 4.7999578
89.401619 34.511734 4.7488861
90.195595 34.697247 4.8191295
89.986694 35.252968 4.7929525
90.296585 35.317863 4.8210926
90.557114 35.411598 4.8444662
90.564766 35.786991 4.8414392
90.608154 36.239594 4.841433
90.367004 36.884937 4.8132143
90.599182 36.533539 4.8381634
90.468674 37.097397 4.8215218
90.652 37.347794 4.8377151
90.823006 37.699783 4.8525915
91.135559 37.797211 4.8828855
90.426346 38.871582 4.8092828
90.569733 38.599171 4.824224
90.459312 39.021118 4.8122463
90.725113 39.032772 4.8387718
106.72914 40.769527 4.551877
106.77335 41.175819 4.5701904
106.37161 41.760124 4.5596619
89.377693 42.304642 4.7074165
90.206886 42.255795 4.7937164
91.357887 42.478989 4.9167557
106.43617 42.367142 4.5880947
106.77384 42.449997 4.6187077
90.048897 42.755203 4.780683
90.585617 42.730286 4.837152
91.248131 42.773998 4.9078674
106.83865 42.736183 4.6353016
91.194298 43.202534 4.9065585
91.895088 43.265793 4.9825029
106.85099 43.140526 4.6525745
91.648796 44.204502 4.9684262
104.8764 44.262291 4.5370646
105.2626 44.437927 4.5760822
106.26644 44.395584 4.6568918
106.86431 44.490112 4.7102585
91.835251 44.518841 4.9935179
106.94319 44.762047 4.7286353
106.96231 45.166096 4.7481027
106.68984 45.764904 4.7525015
106.64645 46.189594 4.7684298
104.82584 46.941208 4.6511793
104.42138 47.44799 4.6412468
104.75351 47.14711 4.6548204
107.12963 47.434723 4.8687353
104.31023 47.762714 4.6470337
104.32158 48.031105 4.6610398
104.52641 48.354519 4.694303
103.84262 48.731182 4.6552577
104.00081 48.875954 4.6759591
106.41228 48.620083 4.8676724
107.13965 48.73735 4.9356546
104.05446 49.04929 4.6893182
105.58902 49.42223 4.8393011
107.16118 49.319893 4.9681859
107.2286 49.692657 4.9939823
39.264874 51.787502 4.781436
38.747707 52.473534 4.8636565
39.056889 52.428017 4.7957373
38.875187 52.632019 4.8277612
39.041603 52.818466 4.7817001
36.473778 53.013493 4.6647644
39.10154 53.03756 4.7587714
37.960072 54.940811 4.9752913
38.032047 54.846218 4.9592428
38.529884 54.641747 4.8425789
39.149002 54.80558 4.6900954
38.873478 55.321602 4.7466211
36.240528 56.611271 4.7342815
36.653061 56.686211 4.6452622
38.226978 56.637882 4.8988137
39.365105 56.934021 4.6130519
38.325584 57.153748 4.8771963
38.82365 57.298035 4.7520938
39.082138 57.051033 4.6846967
32.131065 57.948032 4.9051199
38.767197 57.647827 4.7703943
39.264576 57.975445 4.6479292
33.980362 58.197739 4.5661206
34.24971 58.11618 4.5109258
38.33709 58.024433 4.8875723
38.753601 58.241905 4.7849746
39.017719 58.007542 4.7118912
38.643417 58.501732 4.8196483
40.337181 59.278156 4.9082184
40.361073 59.763439 4.9152374
40.391273 60.264866 4.9255695
40.413673 60.756084 4.9425592
40.442337 61.240597 4.9621134
40.455311 61.756187 4.7776623
25.306242 62.420074 4.5068688
40.464512 62.237904 4.5361629
25.32995 62.754539 4.5318079
40.48484 62.717499 4.5724964
40.504066 62.917248 4.5858088
25.362391 63.245079 4.5692649
40.496891 63.052032 4.6006994
40.517719 63.251762 4.6151299
25.386936 63.731487 4.6080856
40.544338 63.731705 4.6586046
25.410589 64.185051 4.6448774
40.574612 64.23333 4.7078094
25.48278 64.508095 4.6646881
25.998003 64.66362 4.6159201
26.169542 64.84198 4.6111374
40.601559 64.737518 4.7627149
26.227291 65.219254 4.6384773
40.62994 65.247726 4.8225408
26.246113 65.548935 4.6665497
27.216873 65.762314 4.5686898
40.660736 65.762054 4.8868518
40.687157 66.262665 4.9546595
40.680416 66.728828 4.6141815
110.09131 66.950424 4.5114832
40.700718 67.238144 4.5949922
110.11024 67.238991 4.5383205
40.732246 67.744438 4.6678681
110.12299 67.742302 4.5843482
40.759823 68.237434 4.7426071
108.4205 68.357796 4.5494576
109.43436 68.269989 4.5955167
110.17818 68.148155 4.6241136
40.789116 68.743546 4.8222651
108.43398 68.736053 4.5849872
40.822071 69.261238 4.9061866
108.47477 69.224792 4.6324339
40.846291 69.653419 4.9718733
108.4908 69.517822 4.6606092
108.51299 69.812302 4.689395
40.852413 70.283806 4.5362182
108.52798 70.301384 4.736341
40.880108 70.733795 4.6081743
108.57307 70.796432 4.7857914
40.908142 71.232552 4.6902299
108.58816 71.282326 4.8331733
40.938377 71.747581 4.7767243
108.61502 71.775009 4.8821697
40.970581 72.246719 4.8618798
108.63918 72.272514 4.9318867
40.99189 72.622055 4.9274716
41.008839 72.867851 4.9704766
108.67282 72.773674 4.9828081
19.78492 73.062424 4.9490023
20.247538 73.217934 4.9254413
41.013111 73.017296 4.9977493
20.298302 73.53569 4.9525452
41.023018 73.80687 4.528657
41.044918 74.237633 4.5981369
96.132133 74.396156 4.501379
96.645493 74.369995 4.5245948
97.316818 74.219627 4.5428038
21.839432 74.958679 4.9668708
24.630081 74.800964 4.7203526
25.062656 74.792976 4.6839647
25.793171 74.645996 4.6087947
26.092447 74.798943 4.6001391
41.07917 74.751945 4.6811118
95.940453 74.893341 4.5447106
96.100403 74.627235 4.5243459
26.11054 75.142181 4.6344256
41.111908 75.249382 4.7623887
42.817577 75.432953 4.596036
43.331486 75.26207 4.5079165
43.888214 75.04734 4.9887886
96.456764 75.279922 4.6121206
25.976221 75.790176 4.713315
26.005901 75.894798 4.7219286
41.134068 75.729012 4.8428016
42.780251 75.596916 4.6296244
43.272182 75.527283 4.5624046
43.905796 75.645775 4.515202
45.266376 75.810677 4.9817519
45.597958 75.80957 4.9427156
45.186386 76.34111 4.51403
45.282734 76.750389 4.5824575
45.912285 76.739494 4.5212712
46.326916 77.186157 4.5703363
46.750221 77.267662 4.5495768
47.020142 77.191437 4.5116758
44.985134 77.57753 4.7686319
45.160507 77.640625 4.7642035
45.883808 77.699402 4.7093468
46.380211 77.903572 4.7056255
46.834217 77.905914 4.6677246
46.904102 78.046745 4.6897006
47.253433 78.269363 4.7055073
47.796036 78.287651 4.6669178
46.714314 78.903381 4.8743215
47.323677 78.529663 4.7515664
47.952023 78.672867 4.7321558
34.454193 79.866295 4.5103626
34.512871 79.935379 4.5142469
49.319458 81.578049 4.5197721
49.967587 82.152924 4.5837083
50.251514 82.397919 4.6113257
50.784103 82.324455 4.5737877
51.089725 82.496391 4.5891485
50.853191 82.674591 4.6301031
51.078384 82.592148 4.6059465
51.242462 83.418701 4.7393012
52.177502 83.285797 4.6777601
51.335033 83.608429 4.767633
50.316856 84.374069 4.9434609
51.291214 84.048264 4.8443232
52.579472 84.267693 4.8296223
52.241138 84.814255 4.9358492
41.379917 85.902405 4.8038316
41.944328 85.602043 4.7324314
42.089592 85.605247 4.7245293
40.327259 86.412331 4.9312286
40.607838 86.459183 4.9206834
40.746765 86.606735 4.9315386
46.283905 86.950256 4.6786799
41.049858 87.072113 4.97401
46.462181 87.144249 4.6957917
50.43605 87.421356 4.5565033
48.63187 87.727837 4.6736445
49.60751 87.901802 4.6551418
47.295929 88.296974 4.809926
49.823063 88.318512 4.7021542
50.191975 88.293015 4.6836119
45.301369 88.597122 4.9454842
45.549713 88.766815 4.9557176
99.300522 89.327423 4.5259438
99.460495 89.852966 4.5850053
99.558746 90.336823 4.6389561
100.21542 92.766891 4.913516
102.11887 92.817307 4.9390407
43.123779 93.399139 4.534276
99.403412 93.383659 4.9739475
99.953232 93.390503 4.9801044
100.07156 93.235718 4.9640646
43.860031 93.71109 4.5362082
99.249832 93.628944 4.9998484
35.719498 94.906769 4.9846377
50.847057 97.417015 4.6449633
52.931202 97.270157 4.5581932
53.29166 97.166679 4.5356393
53.721516 97.267143 4.5311003
54.086227 97.382889 4.5303516
54.333351 97.59745 4.5434256
54.519581 97.749344 4.5523214
55.200451 97.872208 4.541975
54.674328 98.48568 4.6204176
55.400993 98.01207 4.5492802
55.707767 98.232445 4.5611339
56.121315 98.295349 4.5538878
50.366833 98.706863 4.7901297
54.870102 98.645515 4.629817
55.048954 98.524261 4.6118336
56.392471 98.742523 4.589541
50.204533 99.091812 4.8341379
50.572227 99.351234 4.8469534
56.439384 99.008499 4.6144638
56.577545 99.041458 4.6132669
53.005058 100.79831 4.906661
56.838169 101.13934 4.8134065
57.019787 101.1098 4.8046083
101.85713 109.76544 4.5028162
35.402435 112.1483 4.8270931
35.793663 112.13342 4.8152294
36.302742 112.3739 4.8166943
36.451721 112.50925 4.8213415
36.74052 112.78443 4.831151
37.267532 113.26944 4.8478255
39.304348 115.3587 4.9249578
41.13232 116.77843 4.9629812
46.79425 117.41758 4.8301516
47.233753 117.84127 4.843513
47.681828 118.24188 4.8550458
47.951843 118.50039 4.86306
48.221573 118.73712 4.8696518
48.857986 119.38469 4.8908377
49.14426 119.57169 4.8936043
50.385605 120.74171 4.9284067
50.582069 120.90001 4.9321375
90.342621 16.787743 5.3364449
90.356552 17.092182 5.3250942
91.274384 20.872078 5.2473879
91.306442 21.694122 5.2218962
59.408398 23.130207 5.3204269
59.820385 23.116035 5.3201632
60.07645 23.207279 5.3095341
91.353516 23.161442 5.1780567
91.37101 23.663248 5.1638994
91.438416 24.260399 5.1511507
91.453865 25.158205 5.1264539
95.387733 25.988976 5.4293919
95.772575 25.910244 5.4639711
93.112297 26.247089 5.2321405
93.858971 26.200434 5.2954426
94.31105 26.174953 5.3339939
94.764587 26.153595 5.3728337
90.647614 26.699886 5.0198445
52.163273 33.30069 5.3989191
97.086189 36.686661 5.4815097
94.595398 37.385372 5.228982
92.613991 38.22081 5.0290713
93.636696 38.254684 5.1324635
94.611343 39.099167 5.2349567
92.51989 43.210075 5.0491791
91.878815 44.651951 5.0004325
92.471405 44.540688 5.0636487
92.667763 44.777767 5.0894089
95.300522 44.965248 5.3860378
93.706154 45.139893 5.211504
94.371246 45.187618 5.2867546
95.444519 45.075268 5.4046307
95.547707 45.20269 5.419116
34.107368 49.787743 5.1954765
37.042038 49.941402 5.3706713
107.23851 49.985237 5.0107512
107.25145 50.271545 5.0276384
106.86637 50.839397 5.0262108
107.16953 50.578362 5.0376635
106.93955 51.210949 5.0536695
37.853584 51.711472 5.1006565
107.33298 51.711578 5.1166873
37.770851 52.318748 5.0935521
38.96925 52.240864 5.4788418
39.026283 52.232899 5.4648309
107.38775 52.185562 5.1494036
37.881603 52.798985 5.0496383
38.962032 52.80188 5.4442978
39.056171 52.693787 5.4267254
107.42101 52.754456 5.1865392
37.947433 53.135292 5.0225573
38.025139 53.251137 5.0005102
38.787617 53.024887 5.4764166
107.47793 53.038597 5.2088594
107.50134 53.227318 5.2225418
36.584969 53.732117 5.3306303
107.49108 53.613964 5.2457361
107.58516 53.882347 5.2708941
37.42585 55.947762 5.099268
37.478516 56.033852 5.0860195
38.716183 56.392174 5.369976
34.318069 56.834396 5.1653547
107.97765 56.794338 5.4994822
36.007278 57.468605 5.4772129
38.768845 57.403294 5.3474407
36.725471 57.611115 5.294796
38.430279 57.891693 5.4488831
38.601814 57.859974 5.3981385
39.220524 57.787186 5.2166791
39.517738 57.849308 5.1301384
38.396412 58.124466 5.4614639
39.552742 58.021664 5.1207218
40.475815 61.952682 5.0018997
40.48764 62.242054 5.0219183
40.502018 62.295197 5.0217829
40.5201 62.744968 5.0568156
40.543777 63.243103 5.0992103
40.573593 63.740002 5.1447926
40.599964 64.24231 5.1972651
40.633472 64.745117 5.2528906
40.659992 65.255692 5.3169475
40.685482 65.748001 5.383666
40.717587 66.246544 5.45433
40.724461 66.766891 5.0814128
40.745655 67.24279 5.0976553
40.774372 67.749893 5.1779957
40.806015 68.241783 5.2586675
40.832031 68.748581 5.3471556
40.866131 69.266914 5.4394846
40.871521 69.79892 5.1755986
40.884243 70.266098 5.0779829
11.370403 70.567558 5.4266005
40.914814 70.745255 5.1634479
40.942307 71.245743 5.2559824
40.975727 71.759811 5.352447
40.99128 72.095985 5.4179015
41.010292 72.330338 5.4626513
41.031002 72.528008 5.4998198
41.026539 73.268501 5.0429912
108.69961 73.265839 5.0328736
41.055317 73.755241 5.1312284
108.74174 73.763184 5.0845952
41.089996 74.253181 5.2220836
108.75356 74.266685 5.1357455
41.116009 74.73629 5.3126893
41.148342 75.234032 5.4064789
42.909523 75.493256 5.2124205
43.343315 75.424942 5.1401601
44.364258 75.483147 5.0204821
41.171791 75.620644 5.480372
42.163422 75.80146 5.3778944
42.781879 75.584831 5.2487297
43.033108 75.524483 5.202322
43.681942 75.642456 5.1416941
44.294769 75.596458 5.0536747
44.653446 75.805756 5.0543499
44.763519 76.108742 5.1070061
45.319233 76.228149 5.0677524
45.517925 76.336899 5.0690031
45.580673 76.51104 5.1007195
39.995956 77.316719 5.2537317
45.438545 77.067978 5.2411609
45.570942 77.195541 5.2551422
46.881058 77.158669 5.1092424
47.115387 77.336357 5.1270256
39.586327 77.932449 5.4094963
40.209198 77.78463 5.3113875
42.590668 77.799194 5.0506954
45.993103 77.881035 5.3650084
46.186214 77.901482 5.3497305
40.39798 78.045547 5.3360386
46.964397 78.072876 5.3117847
47.220779 78.235985 5.3254828
47.759861 78.325485 5.2972217
48.02813 78.469017 5.3073444
47.067799 78.619453 5.42874
44.095184 80.643913 5.4405308
47.731014 81.474182 5.3110609
48.167152 81.275314 5.2408457
49.564087 81.250671 5.146667
38.39204 81.806168 5.3477697
47.357552 81.972916 5.4379187
48.472069 81.966789 5.3606186
48.558342 81.916237 5.3447561
49.438736 81.850212 5.2765779
49.573708 81.890213 5.2767611
48.880592 82.09816 5.3612452
49.034946 82.390823 5.411314
49.774075 82.134865 5.315228
50.067127 82.299629 5.3324399
50.770561 82.401276 5.3158579
51.142803 82.252663 5.2666473
50.240631 82.596375 5.3838272
50.843029 82.928635 5.4206982
51.146946 82.840622 5.3875656
53.377068 82.757629 5.2770538
50.832626 83.023865 5.4408364
51.426266 83.339218 5.4770679
51.897705 83.454735 5.4796128
52.182404 83.074783 5.3888884
52.825863 83.359184 5.4217596
53.231174 83.207794 5.3754854
52.447704 83.643105 5.4953394
51.449795 85.30146 5.0509443
51.808849 85.321022 5.0394716
38.976372 88.089363 5.2267466
43.834393 88.558777 5.0151215
43.753319 90.104118 5.2229867
99.128799 93.890884 5.0280104
95.72625 94.43248 5.0594063
96.134781 94.294205 5.0469999
98.401352 94.198303 5.0557914
98.744698 94.087204 5.0464458
94.273933 94.928055 5.1050105
94.665352 94.889465 5.103446
95.214798 94.748459 5.0914669
97.68808 94.862823 5.1245561
98.156631 94.61203 5.1002436
99.138115 94.957443 5.147912
93.370178 95.465607 5.1607428
93.792664 95.270592 5.1410818
94.000854 95.27977 5.1435575
93.181999 95.778877 5.1958308
92.984726 96.085236 5.2301693
93.093513 96.416504 5.2693796
93.055573 96.744781 5.3074174
92.680595 97.381973 5.3798199
93.075989 97.248444 5.3663545
92.789749 97.843193 5.4344912
92.71627 98.150314 5.4702106
41.288361 101.61357 5.416501
47.23008 103.33564 5.36271
49.244648 103.4419 5.3006377
47.19928 103.53845 5.3839645
48.849876 103.72019 5.3423872
49.529003 103.50441 5.2967339
49.773056 104.83376 5.420249
52.511677 105.14735 5.3561478
53.432327 124.16621 5.0472822
53.648464 124.32608 5.0502672
53.855385 124.56506 5.05864
54.294788 124.96091 5.0691986
