# .PCD v0.7 - Point Cloud Data file format
VERSION 0.7
FIELDS x y z
SIZE 4 4 4
TYPE F F F
COUNT 1 1 1
WIDTH 1612
HEIGHT 1
VIEWPOINT 0 0 0 1 0 0 0
POINTS 1612
DATA ascii
43.722267 76.71286 3.2664073
44.269032 76.743637 3.3691492
44.589645 76.853958 3.3419037
35.042923 77.390846 3.4416046
39.848557 77.338371 3.0457566
40.249962 77.198647 3.29477
40.545479 77.186241 3.462224
41.125992 77.319389 3.4134326
44.152424 77.46833 3.4928162
44.576504 77.077888 3.3771906
35.024712 77.749039 3.4775729
38.388809 77.763016 3.2056456
39.971924 77.66024 3.0685692
40.07346 77.581573 3.0524378
43.210468 77.904335 3.2609046
44.298958 77.606964 3.4945962
44.53223 77.793365 3.4928207
42.408215 78.323273 3.3991983
43.387386 78.289513 3.2927017
42.606995 78.589821 3.4128587
43.362869 78.759697 3.3575888
43.950008 78.898972 3.3173428
46.775784 78.829971 3.3942306
47.119984 78.826889 3.3561749
39.431339 79.335304 3.2852373
39.611237 79.265785 3.2639515
41.991325 79.409393 3.0982561
42.716347 79.236633 3.4869227
43.415813 79.152382 3.4050598
43.766968 79.295258 3.3897874
45.75964 79.425591 3.2195187
108.31944 79.495377 3.1811433
39.390739 79.616592 3.318224
39.608482 79.611336 3.3008876
43.949741 79.57766 3.4108622
47.294003 79.857384 3.1526072
26.375898 80.233109 3.4390111
34.074562 80.466194 3.0845001
39.222469 80.060188 3.3785491
42.064884 80.084 3.1677737
46.311333 80.425629 3.3195629
42.330452 80.970337 3.2488999
43.267384 80.686409 3.1501245
43.979504 80.892578 3.124917
44.014587 80.919228 3.1256559
112.23863 80.818726 3.3720644
42.281734 81.154175 3.2734053
109.8748 81.354095 3.3728461
112.28178 81.249924 3.4103911
46.852085 81.937279 3.0688827
109.99789 81.570602 3.3942032
37.380352 82.063087 3.0667191
37.66782 82.264305 3.0711155
49.841896 82.493591 3.3993945
109.14615 82.439751 3.4544921
109.88724 82.155357 3.4435382
37.22757 82.582764 3.1198337
49.878056 82.51767 3.4013319
35.472855 83.124969 3.2497647
37.286987 83.275299 3.1785982
37.644875 83.068596 3.1436317
34.38549 83.962372 3.3745956
37.362339 83.773796 3.2195857
37.796017 83.77755 3.2000029
38.476177 83.911484 3.1809082
48.834831 83.650963 3.1798286
49.065937 83.607269 3.1629734
102.09782 83.81633 3.4455724
37.905937 84.227974 3.2353458
38.334641 84.197502 3.2130821
38.615803 84.326027 3.2118919
47.256866 84.499245 3.368834
99.959518 84.409859 3.4609346
101.26193 84.412331 3.4849215
37.283855 84.671906 3.3036051
38.612965 84.514137 3.2289896
47.308174 84.508018 3.3672283
99.87291 84.553116 3.4726372
101.11894 84.55368 3.4953589
40.639816 85.39373 3.2186406
44.361214 85.073143 3.0297222
44.625004 85.244118 3.0347452
40.703415 85.745171 3.2480767
41.220673 85.785255 3.2292502
39.324661 86.372818 3.366044
40.723179 86.155373 3.2848861
41.345371 86.215263 3.2634685
41.749775 86.284088 3.2524414
43.182587 86.326073 3.195631
41.79525 86.748703 3.2934787
43.198715 86.593399 3.2198427
43.940224 87.29274 3.2544973
44.181091 87.447639 3.2591753
40.06007 87.628105 3.449131
43.978043 87.618408 3.2834558
44.206329 87.606461 3.2730436
47.280758 88.279022 3.2157559
47.790497 88.117027 3.1811447
48.27409 88.201118 3.1711388
48.736568 88.308167 3.1643248
49.005978 88.318344 3.1554689
28.924885 88.724785 3.0088158
48.482903 88.63205 3.204483
45.626625 89.462509 3.3914652
46.152905 89.335983 3.3591113
46.647015 89.140915 3.3216686
47.282463 89.228218 3.3058693
47.543266 89.395073 3.3119497
48.636787 89.086136 3.2421389
45.759819 89.696869 3.4084742
47.591438 89.587418 3.3284514
48.717243 89.891312 3.3160167
46.038982 90.252045 3.4503064
48.740639 90.265442 3.3508718
35.910442 91.829231 3.0774808
67.430328 92.39061 3.0196042
67.501778 92.261917 3.0060658
67.363289 92.534859 3.0344968
92.311829 98.333229 3.0666981
92.661667 98.174789 3.046453
92.216309 98.771744 3.107125
92.336021 99.162994 3.139535
92.501785 99.487839 3.1652575
48.411491 99.773682 3.2556367
48.514301 99.769562 3.2523351
92.479187 99.669678 3.1817579
46.190628 100.19411 3.3457355
50.30542 100.06708 3.2162569
50.552765 100.05125 3.2076633
97.87883 100.90411 3.1936159
98.220932 100.67892 3.1677566
97.749367 101.15593 3.2180715
101.65302 102.54736 3.2710762
89.325249 126.97549 3.3991246
89.575409 126.72326 3.3725851
88.974487 127.28767 3.4336476
89.169769 127.16204 3.4174938
88.686424 127.7011 3.4719124
76.298607 10.914684 3.8267355
74.940765 19.305702 3.5130634
91.211937 21.612785 3.9362116
82.671715 25.927277 3.5122056
82.390022 26.015003 3.5003052
93.671539 26.168053 3.9788756
84.82962 26.772488 3.5730338
85.093613 26.731426 3.5842652
85.616241 26.985588 3.599947
83.050316 27.023342 3.5000877
85.271118 27.133224 3.5830464
85.575958 27.359066 3.5908446
83.962929 27.660915 3.5204186
85.879196 27.587006 3.5988598
86.128876 27.744566 3.6062822
86.586563 29.131294 3.6008911
86.142807 29.979752 3.566678
86.001373 30.431 3.5527487
85.382866 31.616049 3.5052764
85.707664 31.78113 3.5174584
86.227722 31.716774 3.5425482
86.762611 31.781843 3.5667648
87.281601 31.872335 3.590306
87.936302 31.858879 3.6223559
88.225662 31.796078 3.6374254
89.870712 31.908821 3.7191944
87.451225 32.090778 3.5955443
89.145607 33.981926 3.6602645
87.48291 34.942795 3.5632653
88.90239 34.993629 3.6381998
87.730591 35.061699 3.5750666
89.058807 35.212635 3.6448886
89.614578 35.424763 3.67382
88.021667 35.633965 3.5852199
89.069008 35.575386 3.6426086
89.049469 36.34058 3.6360855
89.171173 36.701557 3.6406562
89.674576 36.829277 3.6685116
90.160538 36.975231 3.6957498
90.215164 37.275501 3.69766
90.335236 37.740921 3.7030342
91.197357 37.910416 3.7539334
90.210632 38.426407 3.6936786
91.187851 38.266624 3.7527578
91.273422 38.539162 3.7576122
91.78894 38.677292 3.7891512
92.791458 38.653221 3.8514247
93.864098 38.713615 3.9192595
93.081093 39.786736 3.8720255
89.907974 41.327164 3.673594
90.253036 41.368137 3.6954684
89.637459 42.788345 3.6599398
90.30957 42.78289 3.703548
90.916641 42.940395 3.7441568
92.450226 42.642693 3.8443875
93.524925 42.71508 3.9174967
89.74791 43.007816 3.6679077
90.217056 43.158272 3.6992226
91.36377 43.726318 3.7789381
91.534286 43.91185 3.7918458
93.047424 43.76088 3.8939457
93.620865 43.688683 3.9328365
93.372139 44.248142 3.9213092
93.632126 44.486504 3.9420576
92.861435 44.594204 3.889338
45.666969 49.438419 3.5341697
52.800465 49.29063 3.9008703
50.925854 49.763935 3.9260952
51.071129 49.734444 3.9221468
51.966816 49.790886 3.8749623
52.410507 49.819744 3.8541715
52.704575 49.657196 3.8622508
52.270042 50.035194 3.8348527
51.415936 51.367924 3.719377
52.20232 51.260281 3.6973619
51.824539 51.916016 3.6383462
52.114841 51.663506 3.6547637
51.717625 52.31813 3.5970557
50.784908 52.774307 3.5919075
39.260406 53.104549 3.9920478
47.878521 53.374744 3.7303855
48.068855 53.46553 3.7044528
49.955204 53.450741 3.5654221
50.245247 53.282394 3.5661349
50.59436 53.056583 3.5706947
39.289921 53.960701 3.9486525
47.498978 53.888992 3.7091231
47.84906 53.723549 3.6955657
48.437595 53.628372 3.6564224
48.519001 53.566467 3.6566024
49.758053 53.755543 3.5444984
38.976242 54.420181 3.9701121
39.149914 54.209888 3.956073
47.446587 54.035034 3.6985011
47.802704 54.438183 3.6235313
49.097321 54.420002 3.5182695
49.561958 54.020027 3.5284829
33.507195 54.974068 3.8491354
38.779137 54.651604 3.9870653
39.041435 54.672016 3.9506536
47.86631 54.659508 3.5943618
48.178528 54.664867 3.5665429
48.668941 54.662292 3.5255668
32.905102 55.387192 3.9268847
38.639515 55.001572 3.9919653
47.588112 55.054729 3.578186
91.369614 55.308167 3.9963355
39.217491 55.822247 3.8798366
39.568344 55.905373 3.8281944
46.965534 55.649956 3.5777035
47.021873 55.62817 3.5741744
47.623158 55.611511 3.516634
48.634823 55.671539 3.9950356
49.459892 55.676868 3.9208736
49.649742 55.525623 3.9272742
38.949383 56.432602 3.8945127
39.345482 56.284912 3.8442261
44.482475 56.484779 3.7866211
44.556053 56.442207 3.7809074
46.489304 56.284119 3.5646133
46.712048 56.306187 3.538255
49.435852 56.300514 3.8329155
49.874413 56.211052 3.8097281
34.535526 56.994236 3.7204766
35.151684 56.768703 3.6403155
38.962845 56.549152 3.8884382
39.368523 56.616119 3.8285756
39.551785 56.968819 3.7897935
43.895153 56.592533 3.8550501
44.112736 56.670197 3.8191013
49.173073 56.658886 3.8047175
34.813721 57.141834 3.6848567
38.833447 57.248486 3.8833954
39.195686 57.264004 3.8303862
39.538288 57.301773 3.7798579
42.514008 57.46339 3.9824648
44.155186 57.394211 3.7515638
48.264626 57.199875 3.8177667
48.878014 57.223145 3.7522244
109.5965 57.295708 3.5692315
38.761482 57.822075 3.8761787
39.12429 57.709953 3.8262055
42.668186 57.734303 3.9389226
43.057701 57.952724 3.8639297
43.985283 57.547523 3.7621675
44.362408 57.825397 3.6866732
48.251278 57.785213 3.7384753
48.686409 57.62624 3.7147198
109.59646 57.707405 3.5930474
43.343231 58.055298 3.8136864
43.7314 58.168804 3.7479928
44.086121 58.249336 3.6904912
48.394806 58.417011 3.6360664
109.55922 58.022667 3.6094723
40.140224 58.983597 3.6374643
47.329479 58.935112 3.6943955
47.72897 58.822002 3.6591384
48.235657 58.729084 3.6115468
109.18673 58.729572 3.6314766
39.455574 59.421291 3.7280531
39.744221 59.234921 3.6893611
40.04937 59.023937 3.6496859
44.929413 59.349579 3.9955332
45.194122 59.261368 3.9630029
45.75375 59.19458 3.8839056
46.351276 59.335438 3.7781627
46.801758 59.444016 3.7007313
47.196266 59.230679 3.6738446
109.11308 59.15168 3.6527762
39.323318 59.754837 3.7404301
44.725582 59.659782 3.9952502
46.594604 59.540115 3.7181191
47.094963 59.519943 3.6506717
108.89926 59.705196 3.6748428
38.992973 60.431679 3.7783372
39.117134 60.154064 3.7640038
108.66161 60.358322 3.7021511
29.567774 60.965405 3.573535
38.848152 60.742229 3.7964392
108.62842 60.665909 3.7194195
29.574883 61.070011 3.577291
33.341827 61.103996 3.9358709
38.646221 61.268539 3.8221779
108.27409 61.23019 3.7356827
27.767397 61.756096 3.8147552
28.145983 61.743675 3.7707353
28.798529 61.70932 3.6944356
29.135923 61.655941 3.6534429
38.379337 61.814716 3.8612933
38.517441 61.582191 3.8401082
108.13996 61.748798 3.7613008
33.446423 62.247692 3.9496434
38.228477 62.249687 3.8844995
108.04798 62.256771 3.7888625
33.473816 62.584427 3.9552073
38.098194 62.756863 3.9061334
107.91636 62.764526 3.8146579
37.956486 63.315304 3.9323308
38.022087 63.086941 3.9198749
107.90444 63.248055 3.8457031
37.83453 63.747952 3.956908
107.88224 63.738003 3.8770001
37.724979 64.240288 3.9818592
40.533791 64.44622 3.9993033
107.8969 64.221748 3.910234
37.836563 64.730957 3.9694207
40.558968 64.734917 3.9909482
107.90205 64.51207 3.9301567
40.576332 65.252785 3.9837079
37.81554 65.75209 3.9952047
40.59713 65.755661 3.9786806
31.773966 66.19809 3.5827961
32.11475 66.164703 3.5406337
37.917667 66.250816 3.9904351
40.619328 66.243896 3.9762542
18.66427 66.853416 3.9675314
22.18442 66.64473 3.6548514
37.420586 66.788269 3.5235715
37.976204 66.531113 3.9883113
40.641888 66.742851 3.9768004
18.687883 67.213264 3.9914901
37.44976 67.187103 3.5377805
37.52079 67.242638 3.5297146
40.672443 67.251045 3.979007
37.477806 67.517036 3.5498033
40.696449 67.769768 3.9863656
40.725803 68.229935 3.9941835
38.024132 68.987091 3.5478172
40.744041 68.501366 3.9999366
37.698929 69.184433 3.6104801
38.042892 69.069267 3.5499704
32.848068 69.921471 3.6992083
37.712345 69.936554 3.658129
32.818314 70.233711 3.7259266
37.690933 70.217377 3.681283
32.872971 70.518387 3.7407312
37.841007 70.76252 3.6980393
38.14777 70.772163 3.6507823
94.702454 70.919617 3.6690149
97.102036 70.747871 3.7881451
37.923645 71.260338 3.7238917
94.277634 71.425682 3.6852803
94.688568 71.137367 3.6852767
37.958164 71.676292 3.7524073
38.196514 71.926041 3.7362828
93.972107 71.848846 3.7020416
94.091499 71.639572 3.6919484
38.100842 72.317734 3.7853761
93.837677 72.269989 3.7284999
38.108025 72.630806 3.8124514
93.622803 72.767258 3.7571037
38.206345 73.087364 3.8397298
93.721085 73.261391 3.8032832
38.233288 73.950516 3.9208226
93.857666 73.767174 3.85304
34.163479 74.24147 3.8996205
38.339268 74.060089 3.9157722
93.767639 74.284035 3.8918464
94.038223 74.208984 3.9003029
26.116117 74.83271 3.9584198
36.906052 74.899162 3.6365995
37.201866 74.921112 3.6038094
37.625076 74.903587 3.5520844
43.740582 74.971336 3.9269361
93.597961 74.741386 3.9216945
26.095573 75.07399 3.9808681
38.264069 75.314812 3.5185497
43.824799 75.245514 3.9525933
44.351669 75.446259 3.5221851
44.659901 75.366005 3.796895
45.235222 75.490196 3.6996818
93.490776 75.014153 3.939393
93.540565 75.236015 3.9614367
29.905167 75.801262 3.7231154
31.786245 75.692825 3.5553944
38.286507 75.731987 3.5592875
40.416019 75.854637 3.803369
40.543945 75.68277 3.7633357
43.838493 75.501869 3.9913173
44.335255 75.610542 3.6526134
44.70533 75.673882 3.6763387
45.078381 75.804131 3.7877555
93.622025 75.597878 3.9976077
38.282818 76.071861 3.5956593
40.333481 76.185692 3.8566489
40.623596 76.37365 3.8376827
44.335892 76.268051 3.6537158
44.820663 76.23098 3.7214139
45.202686 76.308167 3.7219646
45.575474 76.423317 3.8057144
40.313374 76.658218 3.9195273
40.565231 76.76609 3.896899
42.837448 76.673447 3.5584133
44.176632 76.552208 3.726634
44.784718 76.675049 3.6458023
45.26685 76.730202 3.6629889
45.629292 76.761703 3.8623891
40.004566 77.17054 3.5210209
42.84198 77.19519 3.6311319
43.48378 77.34388 3.9739709
44.811188 77.467926 3.7789874
45.315117 77.340462 3.6765356
45.752228 77.269737 3.9433224
40.028538 77.659538 3.5756478
44.220726 77.729805 3.5237172
44.602367 77.619843 3.7093804
45.294189 77.581711 3.7235808
46.635284 77.868523 3.9177873
46.192745 78.269592 3.7199953
46.704659 78.259689 3.831459
47.113949 78.471458 3.8628933
41.865177 78.974991 3.5402853
42.965874 78.965958 3.8791647
43.618679 78.887856 3.7826896
44.269867 78.796143 3.6854465
46.171371 78.637688 3.7954834
46.839973 78.544388 3.6848693
47.103897 78.576218 3.713661
39.259941 79.441437 3.8764896
42.903309 79.185974 3.9216428
43.839252 79.125999 3.792711
45.90255 79.33548 3.5801089
46.179642 79.231499 3.9134746
46.896584 79.288193 3.8306007
47.163418 79.403893 3.8211086
38.76165 79.877335 3.9845469
39.41304 79.873901 3.9143775
39.475735 80.00177 3.9239264
42.499245 80.593269 3.6928124
43.222084 80.678734 3.6348066
44.270836 80.927765 3.5724845
45.166878 80.824928 3.9223931
37.314747 81.366493 3.6648762
37.500549 81.321724 3.6458325
42.664162 81.118652 3.7499194
47.404053 81.446678 3.809432
37.284576 82.306244 3.7688808
37.659054 82.323784 3.7426319
38.170094 82.112122 3.6811249
47.478012 82.031418 3.9134512
49.916756 82.490356 3.8158376
50.047363 82.473862 3.8042026
37.179207 82.588974 3.8077016
49.958359 82.57222 3.8294568
110.54405 82.92662 3.5244212
36.888283 83.320114 3.9098325
38.493835 83.087524 3.76548
48.956615 83.031799 3.7634835
49.147133 83.23143 3.7841835
50.318714 83.069649 3.9066072
108.97754 83.015587 3.5024843
110.2278 83.475983 3.5673499
48.90918 83.703735 3.650846
49.193863 83.599014 3.6170774
50.083912 83.88147 3.614553
105.35077 83.970001 3.5200162
109.5568 83.734985 3.5778294
110.49899 83.732925 3.595479
37.320671 84.33094 3.990675
47.471149 84.254593 3.8305168
49.907982 84.340721 3.6993909
105.25739 84.130638 3.5328765
47.415039 84.521423 3.8770018
99.904625 84.916 3.5069351
100.57475 84.93132 3.5204682
103.18478 84.561066 3.5338764
44.375748 85.155029 3.6144118
44.594616 85.348083 3.6252651
98.767372 85.45472 3.5369606
99.487343 85.33226 3.5383096
99.650406 85.111282 3.5205717
40.360931 85.956451 3.9664607
41.476318 85.799812 3.8743868
41.713619 85.754951 3.8536325
44.69857 85.513321 3.6396379
100.1978 85.726898 3.5879879
40.424194 86.092361 3.9784067
40.93663 86.221329 3.9600852
42.582535 86.301804 3.8648143
99.135361 86.445953 3.637054
100.00976 86.371193 3.645328
41.704586 86.776115 3.9776251
42.23698 86.729897 3.9385962
42.785446 86.69474 3.9003849
43.218002 86.617386 3.8645153
44.209579 86.807083 3.829179
98.959641 86.654999 3.6538472
100.02842 86.558205 3.6633472
42.84338 87.027847 3.9377542
44.415688 87.351677 3.8853354
44.555504 87.436646 3.8880334
99.783669 87.294418 3.7290843
32.144638 87.749161 3.8149004
44.56398 87.561127 3.9031706
46.86137 87.994614 3.8353796
47.275383 87.927811 3.8061886
48.338959 87.93338 3.7559879
99.631836 87.697548 3.7650521
47.044373 88.02166 3.8296785
47.82999 88.389885 3.8388608
48.456406 88.044571 3.7649465
48.733616 88.203659 3.7729802
49.149216 88.239563 3.7591338
99.002663 88.373802 3.8194981
99.753609 88.292068 3.8242912
47.866375 88.629601 3.868098
49.747963 88.625824 3.7837269
99.138222 88.892479 3.872077
33.931641 89.497841 3.8906269
35.708481 89.480431 3.809587
36.467346 89.304893 3.7599645
36.514835 89.256401 3.7534413
47.130283 89.078918 3.9612997
47.963051 89.146759 3.9303961
99.066864 89.141861 3.8951597
34.249142 89.616173 3.8870819
35.782875 89.668945 3.8234682
33.87162 90.476913 3.9820642
99.469864 90.047653 3.990376
33.703003 90.511963 3.9927893
42.997543 90.627434 3.6055603
43.160912 90.807266 3.615881
45.640686 90.71196 3.5092068
43.320442 91.00312 3.6278958
45.673443 91.048592 3.5398436
67.933594 91.447372 3.8084593
68.133583 91.430801 3.8062534
76.323074 91.454803 3.8386397
67.827606 91.675293 3.8361661
68.427475 91.601334 3.8265715
68.774292 91.751404 3.8444493
69.176834 91.976166 3.8713393
75.727249 91.856339 3.8800652
76.095497 91.610321 3.854605
41.911873 92.1987 3.7970018
67.439545 92.438126 3.9297061
67.683311 92.160065 3.8952601
75.760109 92.333473 3.9346509
50.944977 95.458542 3.7706051
51.333401 95.441513 3.7558894
51.771008 95.24968 3.7228985
52.221893 95.413582 3.7236886
50.831837 95.840492 3.8110194
51.063286 95.561829 3.7765026
51.687424 95.883377 3.7863879
52.280617 95.597305 3.7393579
52.680798 95.993896 3.7642684
52.679989 96.091736 3.7736661
53.311577 97.303589 3.8693619
55.79805 97.917953 3.8502927
55.90443 98.022736 3.8570776
56.184704 98.160889 3.8617878
56.347641 98.516724 3.890903
56.560936 98.622223 3.8945622
30.218193 100.9944 3.7907166
100.81937 105.91272 3.5827122
100.4698 106.17973 3.612752
100.69788 106.07898 3.5996542
100.31477 106.82127 3.6725197
100.65332 106.69991 3.6555288
100.24431 107.02673 3.6920681
100.31445 107.73268 3.7535417
100.59595 107.55412 3.7324519
100.97909 108.64545 3.8224554
101.05881 108.97737 3.8505373
100.66235 109.20654 3.8783646
44.247154 109.82377 3.9897161
101.97137 109.96886 3.9218903
88.204468 128.24983 3.5267627
87.712746 128.78349 3.5809371
87.295357 129.21254 3.6253128
86.811989 129.7838 3.681282
87.074516 129.53232 3.6546116
86.322258 130.3548 3.7373667
86.561813 130.05855 3.7088838
85.827271 130.92708 3.7936177
86.041794 130.58041 3.763051
94.274597 26.12623 4.0096445
94.738853 26.109085 4.0333858
95.031212 26.108574 4.0483398
95.565552 35.137451 4.0227046
98.10601 37.833683 4.1915078
97.983505 38.153126 4.1852446
98.070923 38.341221 4.1922379
99.385376 38.841694 4.2847171
99.629395 38.899746 4.3019042
53.928825 44.98774 4.3601508
54.115448 44.874619 4.3684907
95.278847 44.646809 4.0607615
50.878094 45.321224 4.4340963
53.337467 45.137993 4.3592682
95.99839 45.218102 4.1208067
53.02306 45.912506 4.2803016
95.105362 45.966194 4.0673604
53.150711 46.020382 4.263927
53.662933 46.323475 4.2143726
95.28212 46.257847 4.0849447
50.960762 47.451118 4.1875048
50.572311 48.430172 4.0959163
52.610886 48.287872 4.0222154
50.549564 49.043945 4.0274816
52.037651 50.998245 4.4542842
50.703041 51.254402 4.4840198
51.206512 51.365589 4.4393535
51.738869 51.196968 4.4379692
52.181931 51.135815 4.4275661
50.987049 51.666069 4.4064579
51.762886 51.611732 4.3748255
38.097992 52.1763 4.185647
38.596985 52.351433 4.1128573
38.746628 52.749451 4.0749416
44.806797 52.700806 4.1034293
49.741341 52.799835 4.3185062
50.326302 52.568176 4.3124118
51.165653 52.848045 4.2204385
51.985867 52.790733 4.1880393
52.05035 52.811092 4.1821256
37.532063 53.122673 4.2196159
44.271721 53.196926 4.1164236
50.197578 53.451843 4.1905522
49.287289 53.753372 4.2139349
49.660202 53.930428 4.1589346
50.20826 53.521568 4.1795206
38.529766 54.418018 4.0305572
43.266022 54.820915 4.0926027
36.657429 55.472656 4.2578526
47.514805 55.383614 4.148746
36.639812 55.807072 4.2503629
47.682713 55.703377 4.0866032
49.988895 55.997017 4.3909383
91.380646 55.611561 4.0069957
91.971619 55.611679 4.0551362
92.314522 55.632832 4.0838466
44.322151 56.015167 4.4758296
48.548187 56.266327 4.4820404
49.900375 56.301914 4.3433728
50.105694 56.068863 4.3681884
91.282158 56.271748 4.0209889
49.135605 56.525772 4.3747439
49.695824 56.735409 4.283587
91.080605 56.730289 4.02034
48.744331 57.389767 4.2638412
49.324474 57.147888 4.2454252
49.522316 57.028236 4.2472453
90.982681 57.143738 4.0269947
91.121567 57.392982 4.0476251
91.78064 57.382465 4.1020226
95.679214 57.46516 4.4323306
39.334965 57.813885 4.4739876
46.785881 57.859581 4.4364882
48.415192 57.658833 4.254858
48.638462 57.640781 4.2321019
91.41877 57.886326 4.091032
91.667236 57.800323 4.1085463
95.714622 57.617359 4.4416246
39.315708 58.007874 4.4664268
43.405048 58.314739 4.3614116
43.514782 58.277473 4.3466644
45.847271 58.458702 4.487524
46.891705 58.092102 4.38346
47.307846 58.426392 4.2693839
47.539043 58.486797 4.2271419
48.356934 58.306614 4.1507778
91.794144 58.125198 4.1318116
92.412514 58.213589 4.1873569
40.329853 58.975185 4.23735
46.975639 58.678307 4.2767339
47.461899 58.542 4.2287641
47.798676 58.634251 4.1674705
48.148537 58.624592 4.122911
93.798401 58.84848 4.3312535
32.001087 59.33429 4.0888605
40.318863 59.286648 4.2223148
44.67041 59.277142 4.0459328
45.469036 59.179485 4.4439569
45.691803 59.125835 4.4134107
46.399925 59.316978 4.2661247
47.198338 59.467907 4.1172709
93.70594 59.338257 4.3448462
40.335766 59.772842 4.1939597
44.62722 59.690231 4.0084934
46.495232 59.728535 4.1877041
46.840523 59.65675 4.1430488
47.064072 59.551022 4.1245713
93.843872 59.605465 4.3686242
94.067688 59.695961 4.3919396
40.342323 60.212177 4.1711044
40.362835 60.762402 4.1420021
40.385052 61.284569 4.115716
25.972561 61.923164 4.0297451
26.110285 61.808838 4.0081186
40.408073 61.752335 4.0931826
25.301182 62.223888 4.12286
25.790951 62.071259 4.0582342
40.430313 62.237514 4.0718894
40.455818 62.771763 4.0503421
25.348898 63.125412 4.1649394
40.47979 63.281303 4.0320807
40.49472 63.714172 4.0194297
40.513699 63.865047 4.0126958
37.591934 64.466759 4.0087929
40.52541 64.216637 4.0043173
109.85679 64.473755 4.0342484
25.435373 64.887039 4.2544861
37.542236 64.858788 4.0245905
40.579628 64.783699 4.4937186
109.92188 64.767021 4.0578842
25.450642 65.288963 4.2767143
37.637661 65.230881 4.0150647
40.603733 65.250397 4.477541
109.93295 65.266731 4.093008
25.4729 65.648483 4.2959356
25.616734 65.870514 4.2925563
40.625153 65.753525 4.4644337
109.97239 65.763046 4.1298041
24.255257 66.373573 4.4863882
25.317875 66.455162 4.3649454
25.669226 66.222237 4.3083339
37.867134 66.268509 4.0001841
40.653297 66.266647 4.4530993
109.98927 66.156273 4.1584492
110.0016 66.449829 4.1799679
37.855877 66.579437 4.0121593
40.678005 66.76503 4.446414
110.02493 66.752357 4.2028828
18.720142 67.458305 4.0065365
37.887856 67.332802 4.0340104
40.703545 67.247208 4.4431276
110.04742 67.244453 4.2396059
18.757935 67.764557 4.025702
37.92765 67.747047 4.0440607
40.727619 67.742828 4.4441953
110.09413 67.739815 4.2782507
18.819159 68.249908 4.0562305
37.926449 68.265701 4.0686164
40.753067 68.264099 4.4113431
108.35322 68.329201 4.2257466
110.12246 68.037148 4.3016467
18.294872 68.742561 4.1373854
18.887527 68.60952 4.0771112
37.868767 68.712631 4.1026349
38.148415 68.967026 4.0634255
40.763393 68.754929 4.2339892
108.39426 68.713409 4.256577
37.770912 69.287247 4.1541519
38.139832 69.044708 4.0694666
40.790958 69.249001 4.2586555
108.42454 69.291389 4.3016353
37.740829 69.764008 4.1897755
40.812057 69.747513 4.259562
108.45206 69.768318 4.3393416
37.864223 70.198181 4.1953282
38.155117 70.453171 4.157505
40.828724 70.266106 4.0728745
108.48165 70.235832 4.3768272
38.265095 70.764641 4.1594744
40.854355 70.753807 4.1010833
38.433472 71.249069 4.1649199
40.877811 71.237366 4.1333604
38.485123 71.526047 4.1776972
38.607986 71.796501 4.1772599
40.909389 71.738777 4.1691756
33.968513 72.355164 4.4328685
38.81588 72.256454 4.1785421
40.941811 72.241478 4.209053
38.963772 72.566803 4.1792583
39.108978 72.818893 4.1760678
40.968826 72.74543 4.2544365
19.526047 73.368523 4.3950248
39.351406 73.248833 4.1734829
40.989521 73.184486 4.2979388
41.004955 73.349136 4.3133302
19.580448 73.77137 4.4235563
39.661266 73.747643 4.1681304
41.015781 73.744774 4.3580713
19.607437 74.124619 4.450531
20.779852 74.30526 4.366087
32.377979 74.307526 4.119
39.909206 74.104538 4.1613822
40.091057 74.348198 4.1556382
41.05151 74.24231 4.4128547
20.872334 74.744919 4.3951793
22.721159 74.967377 4.2573328
35.595222 74.841087 4.4190207
36.836647 74.879692 4.2327251
37.210789 74.911369 4.1788945
37.988754 74.836021 4.0518379
38.251114 74.911606 4.0200853
40.353558 74.707558 4.1500049
40.536243 74.956528 4.1470118
41.077927 74.725533 4.4715099
44.461807 74.728233 4.0779009
44.576794 74.88752 4.0772872
20.95599 75.072479 4.4157877
35.710632 75.041878 4.4225292
38.279587 75.260124 4.0545926
40.761021 75.220421 4.1395264
41.056824 75.44928 4.1153288
43.711998 75.403976 4.0019255
44.708488 75.079163 4.0793738
45.206013 75.420738 4.0237012
93.887817 75.482368 4.0020051
31.87953 75.665314 4.3069754
32.906734 75.593781 4.1782565
38.31377 75.747238 4.1051874
41.108433 75.737022 4.145133
43.95332 75.662804 4.3702178
44.279945 75.671143 4.2931299
44.878204 75.774254 4.1706395
45.123074 75.730774 4.2632561
45.657581 75.961006 4.3615508
94.144669 75.806061 4.0445533
94.532333 75.995453 4.0825052
38.329403 76.053757 4.1387739
40.735542 76.425346 4.3090663
41.119049 76.044884 4.1859751
41.738846 76.421196 4.1294098
42.186424 76.167259 4.0124688
44.929157 76.167854 4.2381635
45.172485 76.2267 4.2639651
45.60355 76.244614 4.2147665
95.71022 76.424072 4.184957
39.99295 76.985558 4.0085945
40.829483 76.56176 4.3119354
41.255222 76.619751 4.2445974
41.786205 76.518646 4.1355
45.17794 76.567429 4.2654338
45.77 76.654549 4.2784724
95.671043 76.723824 4.2096786
35.245644 77.280388 4.0771518
35.651768 77.280327 4.0302329
39.853104 77.130539 4.0478272
44.970242 77.291 4.4705467
45.385658 77.187126 4.3568587
45.677647 77.283699 4.3167872
96.323029 77.111641 4.2801361
44.883335 77.600975 4.1716967
45.088158 77.626694 4.1390038
45.962265 77.858231 4.3945312
46.052914 77.889114 4.3838534
46.763214 77.775398 4.2163081
47.327362 77.867668 4.2806735
47.753082 77.866608 4.3831663
43.66613 78.247742 4.1000123
45.604374 78.213135 4.1702003
46.253216 78.126289 4.1943564
46.764568 78.2854 4.095367
47.390026 78.263863 4.2267456
47.80365 78.282219 4.2388124
48.099499 78.362663 4.3543606
40.082306 78.829536 4.2478189
44.016029 78.838234 4.1518373
46.775513 78.856575 4.1747594
47.050579 78.80481 4.1567187
47.662388 78.939873 4.1252465
48.16444 78.527046 4.1675363
43.371296 79.419029 4.3581963
43.645622 79.469757 4.3256502
46.16227 79.356514 4.334466
46.880539 79.250572 4.1986184
47.201561 79.299042 4.1627927
47.846329 79.26371 4.1104298
48.080936 79.162292 4.2677374
42.088493 79.897087 4.1384468
42.724819 79.931419 4.0625544
43.325775 79.518066 4.3834319
43.602882 79.717819 4.3786273
38.555939 80.107285 4.0354404
42.042873 80.156075 4.1851377
42.81229 80.358887 4.1205635
37.97551 80.608528 4.1606283
38.106281 80.967293 4.1921606
42.773327 80.814964 4.2001119
36.810738 81.265747 4.3680243
37.431709 81.493355 4.3307366
42.957108 81.094063 4.223947
43.01548 81.281494 4.2483001
44.61174 81.040619 4.0219455
45.827724 81.050575 4.3350272
49.693077 81.371078 4.3962083
37.489815 81.536896 4.3301625
46.929462 81.749252 4.353858
47.278492 81.680573 4.3003578
47.627972 81.764282 4.2817054
50.82972 81.584908 4.3603525
47.765678 82.195648 4.3641653
48.126263 82.421219 4.3796086
49.991226 82.481239 4.2355242
50.391773 82.389008 4.1855087
47.843189 82.689079 4.4676633
48.052601 82.779442 4.2360635
48.986935 82.763626 4.3805685
49.11142 82.799789 4.378582
49.790516 82.667625 4.2941284
50.105461 82.53949 4.2409663
47.319221 83.34864 4.1786938
47.95546 83.460968 4.1482882
48.286942 83.220093 4.0756564
48.760563 83.170059 4.1447177
49.25499 83.236656 4.2990456
50.45298 83.207443 4.3747263
47.288059 83.699951 4.2487736
48.914989 83.666779 4.1166854
49.234406 83.570679 4.075633
49.897186 83.727386 4.063693
50.193897 83.665672 4.3424597
46.694733 84.2192 4.3986297
47.66478 84.31456 4.3370075
50.102032 84.204659 4.1467481
42.362617 85.199303 4.3697691
44.410988 85.258286 4.2107611
44.59309 85.40107 4.2187037
50.572235 85.487213 4.3781457
37.826385 85.519394 4.0895534
41.558613 85.576935 4.495254
42.48772 85.606529 4.4200754
44.638329 85.617325 4.248765
50.463005 85.520271 4.3906298
34.861458 86.184494 4.3781557
35.37701 86.498711 4.3761706
39.885059 86.353378 4.0452805
46.557919 86.299126 4.218781
34.645744 86.800568 4.4631763
35.425056 86.565094 4.3802295
38.863861 86.864906 4.1743832
41.32832 86.927353 4.0198164
46.59874 86.806152 4.2973638
36.078316 87.289551 4.4163866
39.857025 87.096893 4.13556
40.918621 87.129524 4.0704355
41.125984 87.026978 4.0447726
46.784389 87.386116 4.3787131
46.953255 87.755623 4.4276958
47.022118 87.746796 4.4219761
48.718464 87.890686 4.3468137
49.612919 87.931839 4.3070736
47.059795 88.198486 4.4928327
47.966133 88.480461 4.4851952
48.098694 88.452515 4.4731178
48.811802 88.022255 4.3633561
49.31488 88.188118 4.3644161
49.706635 88.194939 4.3459654
45.622814 88.856873 4.0092697
49.846306 88.509575 4.3912511
42.995144 89.275772 4.2073565
43.211399 89.178909 4.182796
45.821674 89.161079 4.0376678
43.653248 89.658119 4.2177458
46.043972 89.55603 4.0766654
43.710892 90.434273 4.3122516
99.433029 90.221344 4.0068393
99.767624 90.262009 4.0163083
101.03784 90.089294 4.0201726
43.683857 90.548683 4.3281713
44.328709 90.758522 4.3196454
43.000561 91.311714 4.4621711
43.669369 91.178345 4.4084387
45.177097 91.125488 4.3216534
100.34583 91.066856 4.1048851
45.377903 91.891029 4.4092927
45.530388 91.912277 4.4043365
100.74873 92.319641 4.2355514
101.0681 92.071251 4.2158599
102.08836 92.299469 4.2546711
99.430267 92.801422 4.2634192
99.964729 92.751434 4.266571
100.38933 92.74604 4.2725677
94.352112 93.228218 4.2325344
97.764679 93.382385 4.2972603
98.85788 93.323257 4.3074465
99.286598 93.12825 4.2941675
92.823898 93.873047 4.2786193
94.347206 93.783287 4.2898483
96.285065 93.877197 4.3265333
96.936996 93.741684 4.3219209
97.249435 93.513062 4.3030558
98.731728 93.562889 4.3298597
92.368195 94.337608 4.3213205
92.703491 94.163246 4.3073955
97.044815 94.088173 4.3589849
92.403259 94.73822 4.3639245
92.5439 94.817467 4.3740788
95.385544 94.839157 4.4135933
92.377411 95.374107 4.4307957
92.507874 95.165985 4.4103928
95.523521 95.207527 4.4538088
92.342361 95.73201 4.4683366
50.356388 99.72374 4.1990576
53.150955 99.965118 4.129602
53.656231 99.937744 4.1107478
55.670563 99.93988 4.0477877
52.995049 100.00152 4.1381292
55.269222 100.23065 4.0880289
55.523464 100.07722 4.0654678
55.37252 100.70147 4.1299162
56.019741 100.91437 4.1303792
54.381409 101.30902 4.2191091
54.280003 101.51483 4.242034
54.832436 101.83738 4.2555456
55.149261 101.75283 4.2375503
54.773426 102.09985 4.2825475
55.06813 102.12569 4.275795
56.060211 102.28736 4.260592
54.059517 102.66199 4.3589468
54.231777 103.01339 4.3871503
28.516432 109.47449 4.3699608
44.190353 111.0562 4.066649
102.53944 111.26566 4.0269551
33.35862 112.35038 4.4350858
33.696625 112.37927 4.4284673
33.915649 112.85602 4.4526854
43.960037 112.80748 4.1802306
44.098858 112.86984 4.1800542
32.719078 113.12856 4.499516
105.73573 114.45309 4.2515836
44.910336 115.94467 4.3441195
52.85511 115.80103 4.0907402
53.408764 115.86304 4.0765429
53.638187 115.82823 4.0669498
44.654289 116.01963 4.3561735
45.34206 116.20343 4.3472095
45.638023 116.42115 4.3517404
52.628063 116.01951 4.1113334
53.171898 116.01836 4.0936675
54.04734 116.43144 4.0901766
52.45829 116.59283 4.1515999
54.229897 116.99796 4.1185713
44.176819 117.25808 4.4456224
45.992939 117.29277 4.39429
46.145302 117.37605 4.3948216
52.294086 117.02991 4.1834068
54.397003 117.21281 4.1261168
54.554668 117.34753 4.1290998
43.855301 117.62276 4.47721
46.359474 117.58044 4.4008656
46.651543 117.83455 4.4075756
46.875523 118.02539 4.4124517
47.175549 118.2938 4.4197197
47.476845 118.57384 4.4276228
47.78545 118.82253 4.433351
48.171421 119.17065 4.4427171
49.264774 120.19429 4.4711823
49.521282 120.4032 4.475894
49.761295 120.63542 4.4825068
50.005009 120.8387 4.487227
50.597828 120.99048 4.4778032
55.206146 120.93433 4.3253007
55.633797 120.95535 4.3123617
56.056641 120.61713 4.2777057
50.245625 121.05836 4.4930129
50.853157 121.13797 4.4786925
51.022522 121.28075 4.481997
55.386189 121.05391 4.3265848
55.90559 121.12627 4.3136749
57.147526 121.411 4.2892203
55.068703 121.98732 4.3937821
56.828575 121.73271 4.3195343
56.68325 122.04381 4.3433261
70.739609 127.43001 4.1695824
69.934555 127.61045 4.2108908
70.248383 127.58223 4.1973991
69.487587 128.99382 4.3125124
69.782684 128.91931 4.2969522
74.691696 128.59943 4.091064
75.715103 128.56609 4.0493937
76.19001 128.59163 4.0325098
76.68998 128.67059 4.017909
77.067871 128.73035 4.0068445
67.892929 129.48598 4.4016075
68.19783 129.40732 4.3855791
68.699745 129.25343 4.357636
69.197533 129.08588 4.3289323
66.931168 129.97725 4.466845
67.207062 129.81879 4.4470887
67.604156 129.62872 4.4209356
66.643646 130.13663 4.4870491
106.55205 36.269402 4.7559547
106.5761 36.64983 4.7621918
106.58444 37.038246 4.7676058
106.64784 38.164608 4.7873907
106.24336 38.794682 4.7673521
106.66206 39.301033 4.8056402
106.73739 40.133408 4.8250303
104.99661 40.764561 4.7074528
106.75697 40.839912 4.8390679
105.20845 41.366215 4.73348
106.75482 41.209293 4.8457785
105.80405 41.99115 4.789505
50.059452 42.440926 4.8028326
106.28838 42.205128 4.8301902
106.83951 42.387753 4.8755536
106.88002 42.725845 4.8857737
106.89619 43.063568 4.8943057
37.187637 43.612602 4.7483053
53.50135 43.854767 4.5013523
104.93922 44.313461 4.7722106
105.29102 44.361256 4.8002706
106.92169 44.452591 4.9282851
105.36259 44.662285 4.8126993
105.71355 45.290474 4.854887
106.92674 45.399845 4.9523339
106.13983 45.549015 4.8945789
104.50037 46.779343 4.7978511
53.276402 47.373604 4.9532323
104.34147 47.175545 4.7958364
53.512711 47.895908 4.8681498
104.18574 47.772064 4.7997704
49.898766 48.281628 4.9742699
50.014599 48.246094 4.9722538
53.381912 48.204998 4.8254547
53.659546 48.225304 4.8148928
103.62369 48.452953 4.7742147
53.805588 48.500084 4.7700305
103.91467 48.867237 4.8094368
52.393589 49.310978 4.6927257
52.75642 49.31337 4.6790562
53.021687 49.44487 4.6503525
104.15572 49.073242 4.8348718
105.28797 49.002785 4.9238052
51.420624 49.619453 4.6892195
52.353558 49.693775 4.6368299
104.56169 49.52195 4.8812933
40.301601 50.007622 4.9054241
51.326996 50.364334 4.5825686
50.848896 50.933243 4.5233631
51.094486 50.598808 4.5596795
50.519169 51.162376 4.5086226
52.688572 51.987488 4.9716458
51.716923 52.200005 4.9745426
52.434013 52.245186 4.933557
52.652992 52.143852 4.9439926
38.83823 52.979958 4.8732371
50.617077 52.714367 4.9439068
51.038368 52.94569 4.8743358
52.24865 52.540955 4.8863354
38.197098 53.328148 4.9472837
38.927364 53.282673 4.8373537
50.278599 53.209667 4.8765864
50.789326 53.096008 4.8625588
51.286053 53.268242 4.8000689
51.707321 53.232304 4.7837539
52.362045 53.133717 4.7713757
48.146557 53.896271 4.9418321
38.394035 55.040039 4.8002462
37.822456 55.874008 4.8441753
39.070419 55.964111 4.6300435
44.118965 55.527679 4.5643697
37.960354 56.054092 4.8101392
38.709923 56.17049 4.6768861
39.080379 56.181904 4.6145911
45.855911 56.097878 4.8568292
46.202747 56.310921 4.7718749
48.623547 56.041279 4.513422
38.325317 56.527451 4.7204609
39.202087 56.858521 4.5525227
38.924606 57.295376 4.5738578
39.073196 57.088394 4.5605121
39.02383 57.816612 4.5275531
43.733559 58.143936 4.9064159
44.409988 58.464973 4.7361202
40.352127 58.93573 4.8708224
44.44241 58.513695 4.7232971
44.677986 58.634689 4.6633162
45.143425 58.937401 4.5365491
40.347031 59.266712 4.8456812
45.016647 59.016937 4.5477085
40.366051 59.741581 4.8055301
40.370884 60.214226 4.7700739
40.389984 60.767406 4.7278523
40.414082 61.254631 4.6911664
40.435246 61.755348 4.6562538
40.459858 62.242016 4.6235499
40.480709 62.740376 4.5933414
40.4935 63.151844 4.5712214
40.50845 63.283337 4.5620618
40.526932 63.740513 4.5392694
40.552418 64.244026 4.5156994
40.597267 64.802795 4.8736334
40.628712 65.246536 4.9783983
40.649406 65.747993 4.9574108
23.34449 66.430519 4.5987072
24.098112 66.450066 4.5100565
40.676674 66.236549 4.9389253
40.699471 66.733963 4.925622
23.565451 67.406296 4.6369333
40.728745 67.241142 4.9148588
23.592632 67.513695 4.6409574
40.754562 67.759003 4.9099116
40.778458 68.261543 4.9103928
40.804642 68.755417 4.9149842
25.063408 69.259216 4.5871525
40.832859 69.237869 4.9235301
40.857738 69.735023 4.9387946
40.873638 70.242035 4.7350192
25.872257 70.918083 4.6148286
40.901039 70.750755 4.762012
26.272556 71.391785 4.603941
40.917038 71.231743 4.6036434
11.353889 71.585335 4.9467726
26.542889 71.754837 4.6005006
40.943645 71.749504 4.6073318
11.362347 72.005424 4.9793668
11.67381 72.294281 4.975914
26.60359 72.165207 4.6266184
40.970982 72.252266 4.6493201
11.78618 72.64328 4.9943285
26.639496 72.803894 4.6754708
40.988312 72.650734 4.6871099
41.008015 72.903419 4.7104216
26.661964 73.123177 4.6998553
27.879074 73.477036 4.5840411
41.030293 73.261436 4.7472768
28.389832 73.820198 4.552804
41.055168 73.752007 4.802979
28.817425 74.273674 4.5420222
41.082134 74.251144 4.8639321
29.035086 74.722687 4.5567741
41.115147 74.772377 4.8924699
29.606148 75.179787 4.5310111
41.117928 75.204987 4.6944113
42.800152 75.456482 4.6158185
43.908749 75.468628 4.7273712
44.318436 75.443466 4.608757
41.135639 75.747269 4.6067505
43.194035 75.634895 4.9013162
43.855484 75.611465 4.7710509
44.206734 75.703957 4.6932387
44.635963 75.821739 4.6016512
44.837059 76.11367 4.6118941
45.25238 76.255821 4.5356631
45.593742 76.498894 4.5056176
36.477394 76.921974 4.5196037
39.598099 76.77449 4.5632849
41.193665 76.647575 4.7364845
42.967308 76.547409 4.774775
45.3661 76.746689 4.6234956
45.755825 76.695747 4.5136933
39.640259 77.133812 4.6074066
44.807636 77.483353 4.5491076
45.250103 77.061539 4.7298608
45.776096 77.094589 4.6090055
46.260258 77.361595 4.56426
45.146889 77.837997 4.9525542
46.222382 77.822159 4.6975398
46.851128 77.801857 4.5526628
22.61594 78.133728 4.543982
46.27243 78.139053 4.7743073
46.802036 78.174248 4.6694331
47.111885 78.068275 4.5732708
47.955399 78.443565 4.5184345
48.044937 78.478477 4.5125518
45.964989 78.841148 4.6390843
46.79789 78.713562 4.6356325
47.699722 78.620079 4.6206117
48.158981 78.58934 4.5261898
42.098465 79.063095 4.9907722
43.522148 79.590271 4.8340635
42.901539 80.587059 4.6478505
49.988216 81.492767 4.8083725
40.134109 81.917404 4.7083759
46.853348 81.748756 4.8149881
49.272648 81.716232 4.5284376
49.79504 81.706589 4.8930349
50.435253 81.752754 4.8470483
50.525925 81.781433 4.8480864
40.122967 82.079391 4.7355981
46.811493 82.084488 4.9048848
50.229893 82.260574 4.8044615
50.869038 82.22023 4.6734853
39.959221 82.776405 4.8683295
45.755959 82.699631 4.6949577
46.233711 82.82975 4.6683159
49.467854 82.988274 4.8508949
51.246101 82.737602 4.6486816
41.279499 83.258255 4.7872014
45.47179 83.35006 4.8687139
47.8983 83.490601 4.6444526
48.249561 83.413857 4.5947719
48.643478 83.281128 4.5294642
49.323006 83.27739 4.6560469
49.713974 83.065331 4.8504858
51.350021 83.442642 4.8364105
40.882309 83.799866 4.9256067
41.148914 83.783943 4.891573
47.889557 83.637924 4.6788692
48.044106 83.511436 4.6357088
49.117867 83.514526 4.5440335
49.974258 83.644043 4.5101075
51.431583 83.681786 4.8976083
51.549313 83.635056 4.8781404
41.10347 84.06076 4.9439945
50.390453 84.221436 4.618732
50.948578 84.790657 4.720552
51.223461 84.752945 4.6966786
52.734661 84.614212 4.5964727
44.385559 85.295593 4.8129368
44.58952 85.403801 4.8134527
46.431049 85.085976 4.5870166
50.403961 85.451294 4.9095058
50.728645 85.096802 4.8059464
39.361813 85.976143 4.7505202
41.392792 85.629471 4.5175052
41.597244 85.632118 4.5000701
44.661888 85.631348 4.8490324
50.848194 85.861984 4.9812589
51.799286 85.770409 4.9115825
52.042328 85.962967 4.946723
39.366005 86.099281 4.7678909
40.238045 86.212387 4.7053361
40.693768 86.169563 4.6585827
42.188576 86.354065 4.5576992
45.315819 86.088737 4.8752613
45.790298 86.32061 4.8780384
51.668674 86.49292 4.5289559
42.117607 86.626709 4.6047707
43.147026 86.725204 4.5361075
50.786552 86.96785 4.6658611
51.60955 86.550713 4.5432191
33.595734 87.348663 4.6011987
41.974014 87.065308 4.6830096
42.10051 87.238373 4.6988831
46.785664 87.345734 4.995481
47.123779 87.128891 4.9274497
50.493511 87.433922 4.774682
34.040512 87.951065 4.6370792
34.867233 87.734047 4.5532002
43.56319 87.760963 4.6639056
48.4725 87.60199 4.9261708
49.14851 87.875854 4.938427
49.73983 87.995804 4.9281745
50.241455 87.913651 4.8844662
51.416786 87.799919 4.8047295
33.406242 88.096275 4.6992331
35.822826 88.355309 4.5573468
42.513622 88.053192 4.7903228
43.739147 88.319923 4.7379775
49.40926 88.10524 4.9689674
49.666927 88.162392 4.9657474
50.295254 88.154282 4.930171
43.375599 88.795425 4.839375
43.783371 88.526894 4.7671413
45.451115 88.58876 4.6592555
45.732941 88.601326 4.64254
46.066296 88.723267 4.6402364
47.28698 88.513588 4.5302472
32.66925 89.486755 4.9100451
36.074326 89.066788 4.6227975
43.955666 89.452621 4.9003496
46.724171 89.383339 4.705564
32.463142 89.543015 4.9312057
32.763153 89.530685 4.90834
34.969456 89.724106 4.7755537
35.146851 89.73185 4.7642174
37.744354 89.857643 4.6041217
43.928761 89.701225 4.941606
44.035027 89.70121 4.9340234
44.825607 89.866333 4.9055972
44.12896 90.01236 4.9767556
46.165897 90.218079 4.8752542
47.585587 90.052414 4.7639551
47.59726 90.518204 4.8395557
67.912643 91.901146 4.7693882
68.216896 91.711578 4.7469196
68.786781 91.798981 4.7715154
69.157837 91.968231 4.8044639
43.261055 92.255409 4.5668578
67.69117 92.205544 4.8111649
69.33168 92.054512 4.8209786
69.529625 92.146812 4.8389344
42.984711 93.465363 4.734972
43.070068 93.275482 4.7063217
43.130283 93.559875 4.7391238
44.296097 93.631302 4.6870008
44.789219 93.744476 4.6764202
51.259777 95.698395 4.6505575
51.686966 95.694801 4.6348495
52.24361 95.857864 4.6369982
52.503117 95.766266 4.6162181
51.927338 96.152985 4.6865497
52.623703 96.19072 4.6678972
92.477875 96.378082 4.538763
92.565926 96.144119 4.5148749
92.284508 96.739258 4.5751033
52.842529 97.228706 4.7968931
53.254833 97.293671 4.7921252
53.763233 97.314766 4.7789445
54.13446 97.459984 4.7866673
92.239563 97.300545 4.6348319
54.370361 97.60379 4.7984738
54.574562 97.854767 4.8253641
55.477417 97.973923 4.8153238
55.574108 97.992775 4.8151388
92.282272 97.832001 4.6925716
55.214615 98.277946 4.8624673
55.838127 98.280289 4.8456287
56.22308 98.275497 4.834784
92.271957 98.125389 4.7241597
54.864616 98.585663 4.9127588
55.049358 98.542915 4.9018559
56.543488 98.879143 4.9054103
55.488781 99.164024 4.9708877
93.410324 99.939056 4.9331937
93.730408 99.740005 4.9149237
48.162148 102.91959 4.5806713
47.902676 103.49585 4.6448789
48.371521 103.04305 4.5851622
39.079674 103.57063 4.980896
47.232788 103.97794 4.7145901
46.777809 104.22504 4.7543659
47.288342 104.12528 4.7267127
47.599457 104.30395 4.7328119
52.895222 104.4769 4.5702634
53.590004 104.28051 4.5290365
19.078255 113.08761 4.8099704
32.349174 113.14422 4.5096374
32.51683 113.17267 4.5072746
12.266376 113.6108 4.9856696
43.537914 117.94638 4.5061536
43.202408 118.33615 4.5396328
102.37101 118.26772 4.6593151
101.87085 118.79305 4.7167187
102.08231 118.50146 4.6861472
101.38911 119.32009 4.774045
101.65198 119.06137 4.7453599
100.85316 119.94573 4.8415418
101.08263 119.66142 4.8111305
100.38412 120.47152 4.8987784
100.61504 120.21323 4.8706379
99.292557 120.86592 4.956893
99.796799 120.87378 4.9473095
100.15565 120.74133 4.9279537
51.178028 121.86185 4.5123386
51.349415 122.05141 4.5183973
51.618683 122.30689 4.5253224
51.872719 122.54874 4.5318847
52.04958 122.70401 4.5356441
58.095055 127.87469 4.6498499
58.321045 128.04649 4.6526103
58.648788 128.36398 4.6607437
58.978714 128.67189 4.6681943
59.198914 128.82936 4.6702323
59.422531 129.00584 4.673296
59.760567 129.26886 4.6776729
64.297562 129.12268 4.5096474
60.329521 129.69919 4.6842308
60.791016 130.04257 4.6891465
61.145706 130.33322 4.6945162
66.245583 130.29057 4.5108986
61.640163 130.83226 4.7076712
65.771835 130.59888 4.5468588
61.997242 131.08261 4.7104402
62.235714 131.30905 4.7158809
62.487576 131.54082 4.7211652
62.75238 131.7738 4.7260556
63.02087 132.08228 4.7353997
63.727299 132.32555 4.7252746
64.104454 132.02046 4.6933022
75.706444 21.762125 5.351378
76.32093 21.785103 5.3709555
76.696991 21.854454 5.3799028
59.47683 22.927341 5.0682125
59.729347 22.917805 5.0661964
59.990742 23.023575 5.0553317
76.666336 23.61277 5.2679038
76.80307 24.576397 5.2132745
77.059441 24.652742 5.2187958
77.916763 24.802021 5.2451019
77.577492 25.049911 5.2158251
80.166168 25.995853 5.2782254
77.952957 26.779316 5.1289177
79.402954 26.933281 5.187892
80.415001 26.653008 5.2537618
80.501411 26.856964 5.2468262
82.195679 26.731079 5.3428736
82.657822 26.852383 5.3618903
83.78775 26.86237 5.4253025
77.887703 27.428104 5.0879097
78.280312 27.428726 5.1060152
79.724861 27.244886 5.1861482
80.720551 27.153488 5.2417874
81.262848 27.151144 5.2703037
82.535858 27.034355 5.3455386
83.115105 27.344761 5.3620567
85.164276 27.181351 5.4910893
78.626404 27.548157 5.1154561
84.904099 27.851864 5.4427066
85.243553 28.02042 5.4555783
85.538589 28.723639 5.441072
90.235634 41.904091 5.3622317
90.194382 42.247761 5.3521495
91.323601 42.318039 5.4560962
90.20462 42.549099 5.347764
90.671143 42.603867 5.3903198
91.07737 42.812206 5.4251776
91.30146 43.15797 5.4413109
49.827118 46.042236 5.3106856
53.170517 46.023663 5.1589732
53.72403 46.260925 5.1076889
107.15991 47.986229 5.0434275
38.23024 48.001884 5.35711
53.490379 49.349228 5.4369388
53.567108 49.295952 5.4448323
38.746262 49.976833 5.1211286
52.963074 49.922253 5.346118
39.195194 50.234905 5.0369086
52.890003 50.111328 5.3134065
49.362293 50.841461 5.3787932
49.329987 51.06702 5.340343
49.696262 51.133949 5.2994323
51.908386 51.437748 5.1066294
35.484482 51.580948 5.4993258
35.580544 51.552719 5.4855804
49.628643 51.579296 5.2233906
50.534836 51.67691 5.1402097
52.12796 51.921505 5.0067163
37.877754 52.343418 5.0670919
37.865978 52.833118 5.0340428
37.281174 53.181404 5.1029539
37.732529 53.207115 5.0290718
106.92793 54.462791 5.2592425
107.40332 54.107891 5.2845712
44.157604 55.767242 5.1751385
42.596821 56.363434 5.3649702
44.078331 56.409859 5.0923109
107.56169 56.220116 5.3913794
38.689598 56.878937 5.3678589
42.357838 56.607605 5.3767476
107.59733 56.718781 5.4178257
38.458073 57.198952 5.3877516
38.719723 57.183186 5.3369575
107.61971 57.219368 5.4437099
42.433224 57.900887 5.1913314
42.566139 57.976593 5.1550283
43.086487 57.81567 5.0741577
107.64365 57.71756 5.4701724
42.863392 58.173706 5.0704327
107.66068 58.115562 5.4914656
40.37524 59.301235 5.4717679
40.395802 59.788212 5.4181347
40.401424 60.237804 5.3734732
40.41964 60.772015 5.3199844
40.441639 61.257435 5.2722907
40.462852 61.723999 5.2286134
40.487122 62.243095 5.182456
40.510796 62.74197 5.1406927
40.530807 63.219631 5.1041312
40.557072 63.741524 5.0662189
40.580177 64.242752 5.033618
40.602013 64.642181 5.00914
40.945217 71.279869 5.0176497
40.969402 71.759712 5.0540233
40.991028 72.116104 5.0830941
41.010063 72.366203 5.1042285
11.823368 72.857216 5.0083923
41.025124 72.744705 5.1431308
11.722759 73.005074 5.0288911
41.049931 73.228958 5.1958075
41.078438 73.740158 5.2563534
41.107822 74.239136 5.3204713
41.138058 74.743462 5.3906274
41.162174 75.287186 5.3153658
42.705925 75.372009 5.0470796
41.171535 75.755074 5.0726261
42.442749 75.669983 5.177619
42.541706 75.657074 5.1472564
41.183414 76.03804 5.1173267
39.826759 76.649902 5.0271893
39.155689 77.531624 5.3109303
44.115189 79.301086 5.1190577
108.99315 79.01384 5.1417556
109.54956 79.291641 5.1972537
42.920433 79.829689 5.4922867
43.114521 79.905296 5.4696426
43.659813 79.875702 5.3504877
