# .PCD v0.7 - Point Cloud Data file format
VERSION 0.7
FIELDS x y z
SIZE 4 4 4
TYPE F F F
COUNT 1 1 1
WIDTH 1613
HEIGHT 1
VIEWPOINT 0 0 0 1 0 0 0
POINTS 1613
DATA ascii
73.775948 123.15563 3.6255872
74.26059 123.12993 3.6056616
74.722778 123.05777 3.5836713
72.819977 125.92204 3.8301556
73.20871 125.8759 3.8128583
73.515106 125.87553 3.8013878
69.811493 126.4193 3.9709222
70.273331 126.35385 3.9501603
70.738884 126.26633 3.9278612
71.205956 126.1793 3.9054596
71.778168 126.08346 3.8785751
72.247589 126.01181 3.8568676
72.546387 126.00042 3.8450961
69.544716 126.50616 3.9858508
77.39753 127.0058 3.7234793
77.791832 127.14926 3.7171607
78.23452 127.15658 3.7005923
83.94384 128.40939 3.5547719
83.771179 128.74033 3.5821359
86.930161 129.99057 3.5340424
91.25193 21.199974 4.2615347
92.809021 26.214584 4.2259197
93.259361 26.184538 4.2473822
93.849976 26.163845 4.2755141
94.298157 26.147362 4.2971125
90.188141 31.369259 4.0139251
90.232201 31.626678 4.0118923
98.146805 37.130989 4.4036021
92.376747 37.83226 4.0525446
93.71917 38.139786 4.1293044
91.965492 38.739922 4.0222917
91.894234 39.061268 4.0160303
92.106323 39.242794 4.0274172
36.905014 39.581501 4.0462646
92.83326 40.438534 4.0655117
92.87915 40.64286 4.0676408
97.519547 41.242035 4.3646035
96.348572 43.07869 4.2925181
92.978592 43.617111 4.0706153
93.312752 43.692291 4.0925312
93.767052 43.676666 4.1223216
94.088432 43.654549 4.1434803
95.37204 44.37265 4.2322235
93.325897 44.801414 4.0960512
95.500046 44.623314 4.2422457
40.910126 49.861221 4.3653436
52.385696 49.871822 4.484458
50.826374 50.76889 4.4466882
50.706497 51.328262 4.3883834
51.213509 51.425922 4.3529749
51.749092 51.334923 4.3401613
52.208271 51.226871 4.3345141
50.986389 51.659866 4.336679
51.257092 51.60228 4.3307805
51.651981 51.736362 4.2979383
38.949764 52.287689 4.4240861
39.22934 52.390808 4.3865895
38.977951 52.869255 4.3877382
39.044643 52.712822 4.3889904
49.782288 52.852585 4.2642527
50.323898 52.751171 4.2452803
51.249893 52.945206 4.1765671
51.930416 52.530853 4.1948285
52.062096 52.792221 4.1594391
37.984024 53.355965 4.4779267
38.934349 53.047302 4.3827338
48.247562 53.02375 4.3448834
49.620258 53.0966 4.2461529
50.142544 53.472198 4.1730118
49.66713 53.945358 4.1470952
50.303787 53.569992 4.1528683
38.905167 54.48399 4.3074198
39.354404 54.461037 4.2553806
48.420414 54.213028 4.2000647
38.705143 54.656456 4.3223476
39.17445 54.511074 4.2738953
49.464592 54.973564 4.0435381
49.713837 54.730103 4.0553536
48.28521 55.292919 4.0903802
49.119999 55.46608 4.0109973
91.382797 55.278973 4.0734854
38.363789 55.740314 4.3093224
38.626076 55.882988 4.2693954
39.180668 55.81966 4.2040324
44.434231 55.501221 4.4231596
47.764801 55.540466 4.1037059
48.605911 55.586937 4.0338774
91.388428 55.61517 4.0809202
91.808922 55.652687 4.1146326
92.179794 55.634125 4.1433444
38.935356 56.095455 4.2202215
39.270176 56.186352 4.1742182
91.356216 56.218773 4.0915751
39.111702 56.888466 4.158896
49.630787 56.968948 4.4796357
91.076332 56.689117 4.080256
39.1605 57.285744 4.1335092
48.952068 57.499397 4.4545264
49.302319 57.306126 4.454865
49.523651 57.101265 4.4680219
90.978249 57.145676 4.0833035
91.105629 57.409245 4.099966
91.626991 57.407238 4.1417031
95.665588 57.361214 4.4685602
45.504097 57.841633 4.0737877
49.049999 57.501389 4.4462433
91.427307 57.90546 4.1386251
91.742966 57.757034 4.1602373
95.695457 57.618973 4.4787321
43.259483 58.221466 4.3010688
43.742504 58.32616 4.2309794
47.40015 58.445755 4.4636121
47.596085 58.451008 4.4427781
48.345993 58.27951 4.3946075
91.779572 58.149357 4.1737399
92.409813 58.191685 4.226223
92.602631 58.420128 4.2485104
46.956627 58.947994 4.4416394
47.136269 58.622169 4.4669752
47.887661 58.757889 4.3703465
48.234406 58.904594 4.3159251
93.799149 58.823799 4.3592024
44.705688 59.321587 4.0205617
46.369469 59.419956 4.445384
46.63176 59.192924 4.4450541
93.719337 59.273701 4.3668785
46.758217 59.610325 4.3740554
47.057007 59.567928 4.3455443
93.874382 59.618629 4.3910885
40.425896 60.862808 4.49438
40.435112 61.228638 4.4681501
40.457478 61.741295 4.4307528
40.484501 62.237267 4.3947573
40.496979 62.611206 4.3696265
40.512959 62.7864 4.3564653
40.524635 63.248341 4.3274298
25.396408 63.970112 4.0837898
40.547672 63.728657 4.2966161
25.424934 64.260971 4.0934682
40.569466 64.227669 4.2663007
25.440842 64.765244 4.1144814
40.593346 64.746635 4.2361403
109.90634 64.980095 4.0009418
25.474468 65.269478 4.1341071
40.615364 65.245613 4.2088618
109.94 65.270203 4.0207229
25.466503 65.53833 4.1477594
25.655121 65.819466 4.1398578
40.632587 65.721115 4.1851516
109.97066 65.774651 4.0538774
22.822515 66.316772 4.4891109
25.263458 66.323685 4.209394
25.644026 66.186623 4.1590953
40.657684 66.251007 4.1595464
109.97644 66.373642 4.0920081
110.00571 66.17588 4.0810871
38.191624 66.929794 4.0054512
40.680134 66.754898 4.1373901
110.01862 66.772728 4.1198802
38.111828 67.252983 4.0192022
40.703892 67.24411 4.117507
110.06587 67.272095 4.1547556
37.971458 67.809677 4.0454988
38.022167 67.573524 4.0354595
40.72485 67.744522 4.0999155
110.08071 67.775352 4.1884799
37.897263 68.230125 4.0618787
40.747066 68.254395 4.0842004
108.38567 68.396828 4.1345534
37.819275 68.576866 4.0793967
38.098545 68.920616 4.0348463
40.773849 68.774445 4.0699077
108.39881 68.782768 4.1610246
37.965343 69.047905 4.0603943
38.02705 69.319275 4.0541148
40.79353 69.270737 4.0600414
108.42053 69.261597 4.1944599
33.885273 69.824509 4.1060877
38.071003 69.758072 4.0550532
40.814644 69.755524 4.0526037
33.915455 70.225754 4.1193933
38.091579 70.234726 4.0627208
40.836266 70.245705 4.0477848
33.942039 70.521576 4.1290402
38.207893 70.649635 4.0529871
40.859001 70.749184 4.045701
33.948006 71.288353 4.1661029
40.882435 71.259163 4.0467892
33.971157 71.774559 4.1884542
38.20433 71.744698 4.0915589
40.906044 71.756554 4.0509391
33.991859 72.207336 4.2095098
34.005619 72.327065 4.2143531
38.200142 72.246872 4.1136727
40.93008 72.24115 4.0580759
34.017181 72.735016 4.2367868
38.214371 72.731277 4.1339521
40.954845 72.736031 4.0687437
34.040024 73.174446 4.2605228
38.250755 73.23999 4.1537924
40.977207 73.241615 4.0840664
34.061672 73.810318 4.2987962
38.3218 73.731033 4.1686125
40.994061 73.567657 4.0952802
41.010765 73.826187 4.1048079
34.1031 74.266479 4.3239126
37.945183 74.109917 4.2636261
38.12434 74.337662 4.2445545
41.024494 74.250732 4.1257296
38.238621 74.722412 4.2493691
41.056355 74.735771 4.1494784
44.445068 74.869286 4.0291243
44.548 74.995499 4.0061903
38.334759 75.25473 4.2703323
41.075191 75.109642 4.171535
44.422501 75.017754 4.0455399
38.403717 75.565323 4.2813854
44.61031 75.672478 4.0399694
40.152748 76.253952 4.0060725
44.708599 76.324677 4.0747519
96.947067 76.441483 4.0698948
44.893341 76.973404 4.0975771
45.17144 76.8815 4.002697
95.826004 76.790558 4.0341506
96.32814 76.57917 4.0457311
39.853958 77.334404 4.1655564
41.72538 77.452095 4.2435303
43.395416 77.422531 4.2310543
44.844723 77.23394 4.147531
45.049206 77.453003 4.1182785
96.079132 77.097656 4.0732284
41.622421 77.574707 4.2806768
43.905464 77.941223 4.1691413
44.973801 77.59314 4.1613741
45.063942 77.586731 4.1339989
39.72979 78.141281 4.2745223
42.960838 78.462616 4.0950418
43.821487 78.155731 4.2215824
44.079273 78.047722 4.1399503
45.703445 78.119179 4.0352159
43.092518 78.980209 4.1391687
44.312485 78.696533 4.1809244
38.333561 79.198769 4.1091175
38.55854 79.442062 4.1020069
40.302399 79.081299 4.277472
42.478039 79.258392 4.3125281
43.186546 79.298653 4.1664038
43.664951 79.438469 4.3387184
45.88385 79.191025 4.1899147
46.203114 79.132744 4.091167
37.991032 79.650192 4.2104096
38.256683 79.632561 4.1685743
39.59798 79.534286 4.4635019
41.977531 79.81189 4.0668554
42.875381 79.644081 4.2853746
43.21804 79.523514 4.1938949
43.60984 79.52066 4.1103702
40.995659 80.317078 4.3128757
42.389603 80.319389 4.278017
42.718742 80.330612 4.4280176
37.786301 80.521263 4.340703
39.07156 80.698402 4.172163
42.322605 80.565468 4.113131
44.696091 80.873192 4.2445774
45.216858 80.898201 4.0253482
45.659885 80.850632 4.2739801
46.374035 80.803932 4.3286819
46.895756 80.993973 4.3604813
39.684536 81.476959 4.1808343
44.858715 81.405205 4.1920652
45.356728 81.147476 4.2277002
45.658356 81.199844 4.3515592
46.837753 81.293976 4.3029466
47.437325 81.359238 4.0253482
36.140255 81.825623 4.0946717
36.626312 81.578247 4.0126657
38.751808 81.770782 4.3529944
39.006638 81.958786 4.3406715
46.888241 81.524452 4.1731968
47.286331 81.707443 4.3477292
47.663578 81.797615 4.4142971
37.179199 82.249786 4.0246615
39.241974 82.217438 4.3412137
46.624489 82.440414 4.4524784
47.021683 82.39045 4.3654976
47.805637 82.206924 4.33921
48.186852 82.19558 4.4279752
49.024071 82.499222 4.3731403
49.940815 82.40403 4.2010951
50.2197 82.390274 4.1584587
47.789085 82.76017 4.3284502
48.072731 82.747116 4.2777395
49.17234 82.873047 4.2381468
49.714394 82.670731 4.3213358
50.160793 82.672295 4.1920624
36.850311 83.189484 4.1685266
37.429184 83.117584 4.0964174
47.245861 83.21534 4.178164
47.803146 83.266449 4.2872486
48.275837 83.197983 4.3180332
48.697685 83.077034 4.2731738
49.316822 83.321365 4.2574601
49.90033 83.281433 4.3863711
50.364429 83.190994 4.3048358
31.830482 83.909279 4.001924
35.268223 83.832024 4.4175873
48.892117 83.582939 4.0464592
49.037735 83.544121 4.1892686
49.879955 83.731712 4.2737389
50.191048 83.846359 4.1405606
46.694275 84.076447 4.2668419
47.310337 84.280777 4.1343832
47.591682 84.263588 4.190464
49.918453 84.093994 4.0673823
50.393379 84.254059 4.4126277
42.320625 84.928192 4.3273277
46.34832 84.926376 4.289227
51.348011 84.792389 4.4965329
42.406498 85.291618 4.3755326
44.387344 85.092262 4.1087399
44.582306 85.284729 4.1198173
50.670036 85.32592 4.3320169
42.326416 85.755661 4.4609714
46.323086 85.871643 4.4923182
50.441162 85.671501 4.3118801
50.527023 85.596375 4.4162745
39.621025 86.37014 4.2739668
40.286228 86.2052 4.1862197
41.071552 86.391541 4.1352806
42.473423 86.485199 4.0166745
42.563389 86.464317 4.0054674
46.674171 86.222511 4.0719204
39.001129 86.75386 4.3867149
41.231098 86.749496 4.1695838
41.66637 86.839012 4.1411638
42.43486 86.832642 4.069521
42.597683 86.605919 4.0224533
48.528877 86.982948 4.0582767
34.873337 87.253098 4.1055193
35.300827 87.239838 4.0720963
39.643456 87.233856 4.3882222
43.256611 87.331329 4.0683379
46.792915 87.367371 4.2747641
48.482555 87.225319 4.1087413
48.511124 87.395348 4.1395731
33.888428 87.844513 4.2422452
35.096432 87.509087 4.1160913
39.668434 87.506584 4.4230218
42.820084 87.998192 4.2035866
46.74358 87.689491 4.3397126
48.432308 87.809319 4.2258701
48.588329 87.923218 4.2366047
42.967449 88.168335 4.2158504
43.29776 88.166595 4.1875172
46.954697 88.41407 4.4589219
47.22126 88.402878 4.4349208
47.692467 88.399689 4.3966064
48.766193 88.116409 4.2616725
49.197453 88.2276 4.2538991
49.567806 88.11515 4.2075615
35.327606 88.657532 4.223032
45.681534 88.861435 4.1044841
46.997101 88.92923 4.0228419
47.171982 88.716599 4.2871494
47.693199 88.676285 4.4499044
49.791855 88.647705 4.2991772
32.751373 89.299103 4.4824309
33.690117 89.150482 4.3968534
34.994942 89.494652 4.3388696
42.344288 89.26239 4.430058
43.341328 89.306053 4.353785
43.634418 89.474686 4.3554225
45.907837 89.243134 4.1475577
47.300251 89.083885 4.0273933
43.410057 89.642525 4.3987331
43.733829 89.539108 4.3572426
43.409222 90.308434 4.4995737
43.939575 90.216339 4.4441929
44.21986 90.437798 4.4567866
44.326141 90.643471 4.480464
76.560822 90.956879 4.4443898
75.884583 91.432068 4.4765553
76.262527 91.167305 4.4584889
67.950966 91.9487 4.2668085
68.169846 91.730774 4.2420139
68.78923 91.931076 4.2884932
75.665123 91.634094 4.4935527
67.78231 92.284195 4.3103118
69.087753 92.060852 4.3157191
99.920074 92.832596 4.021275
100.09329 92.710503 4.0128126
96.846085 93.456116 4.0257411
97.438362 93.338158 4.0248451
97.619049 93.140556 4.0089579
99.161034 93.286316 4.050921
44.250683 93.871391 4.263227
93.581749 93.956879 4.0181975
94.856171 93.663383 4.0110798
95.037292 93.915916 4.0390635
97.912308 93.709763 4.0693774
92.631149 94.364281 4.0428205
93.58931 94.131042 4.0356092
92.196144 94.746765 4.0740452
94.300674 94.806091 4.1147318
50.913296 95.265373 4.1403584
51.267754 95.208679 4.1202478
51.746513 95.340591 4.1206832
92.240341 95.279442 4.1284513
52.287556 95.795647 4.161715
92.512741 95.849541 4.1905289
52.276196 96.127693 4.2053332
52.56377 96.239914 4.2105656
92.302414 96.25602 4.2285995
93.636902 96.248856 4.2488747
51.966827 96.527161 4.2675271
92.194458 96.81263 4.2838221
53.305767 97.165367 4.3079262
53.612885 97.3657 4.3248172
92.241333 97.19342 4.3236389
55.393871 97.896317 4.3449697
55.746532 97.821152 4.3264346
56.064487 97.814911 4.3179059
92.225258 97.721985 4.3779073
56.485413 98.449051 4.3902211
56.685497 98.34333 4.3719707
72.233017 98.390533 4.2495546
92.357964 98.343384 4.4442062
56.351669 98.68882 4.4244065
56.658092 98.523262 4.3958774
72.263489 98.749077 4.2919064
92.199951 98.618446 4.47052
54.985653 99.007919 4.4999733
72.296333 99.288109 4.3556786
46.243946 100.23584 4.06708
42.037083 100.74394 4.2690482
54.672863 102.54059 4.0104747
47.781986 103.43681 4.3156338
47.763577 103.53799 4.3258152
48.016098 103.53062 4.3165336
48.097996 104.25132 4.3818874
52.971504 104.86873 4.2827425
53.283978 105.25071 4.3093333
30.555641 108.3672 4.0297832
27.770374 109.32436 4.1475058
41.654945 113.15044 4.0650196
37.693546 113.74862 4.2004323
43.663738 114.16629 4.0735188
44.224636 114.17477 4.0589819
47.387638 115.49597 4.0506706
47.677059 115.46035 4.0403056
48.111324 115.3902 4.0236974
104.15176 115.39658 4.1384716
104.93337 115.42715 4.1278734
105.15204 115.307 4.1136088
44.403931 115.65945 4.1432962
44.783054 115.9568 4.1508141
46.82534 115.88324 4.0897379
47.138412 115.68998 4.0693364
47.952618 115.52727 4.0364389
104.05709 115.75365 4.1715283
104.78404 115.60005 4.1456132
44.912678 116.41853 4.1749635
45.175644 116.20749 4.1550837
45.501911 116.3969 4.1574397
46.560253 116.26011 4.1197515
48.140491 116.33879 4.0795593
103.90961 116.3461 4.2262726
104.06995 116.19772 4.2104363
45.693123 116.56735 4.1623559
103.46824 116.88081 4.2810855
103.6844 116.61714 4.2540674
45.865295 117.29446 4.2011261
103.19511 117.23016 4.3167043
46.068916 117.93369 4.2337179
102.75729 117.74821 4.3701921
102.40169 118.18971 4.4155626
42.904091 118.7124 4.3671608
101.78156 118.71152 4.4728456
48.778103 120.32419 4.2991948
49.226227 120.62629 4.3041224
49.701107 120.64523 4.2912707
50.001297 120.89737 4.2974401
55.77589 120.81013 4.1145697
56.182625 120.94212 4.1094513
50.306316 121.0806 4.2993073
50.777866 121.13446 4.2884374
51.086655 121.38873 4.2943416
55.552925 121.07697 4.1375933
56.354916 121.11414 4.1141963
56.694462 121.34457 4.1170325
51.224491 121.99377 4.3262887
51.381775 122.1515 4.3309531
51.620853 122.3511 4.3356276
51.861382 122.56558 4.341126
57.910309 123.22772 4.1900964
59.641289 123.42363 4.1448483
60.725685 123.78431 4.1302223
59.329815 124.30145 4.207664
60.298317 124.35883 4.1789188
60.536274 124.1777 4.1601233
57.679314 127.80455 4.4709673
68.905945 127.94197 4.0956755
69.271072 127.82846 4.0756927
69.635963 127.71434 4.0556335
57.971794 128.07289 4.4775152
58.166168 128.25906 4.4823217
63.438969 128.24986 4.3058486
63.696838 128.1293 4.289783
67.382851 128.4971 4.1834521
67.725616 128.33562 4.1615634
68.271408 128.15657 4.1313367
68.632874 128.02982 4.1107702
58.787975 128.83815 4.4966431
66.404022 128.92612 4.2437677
66.758278 128.76038 4.2213478
67.114876 128.60776 4.1995888
65.334373 129.42081 4.3108311
65.789711 129.22229 4.2830596
66.138954 129.05524 4.2608204
64.892502 129.65825 4.3404016
65.079773 129.60895 4.3309631
106.54411 35.742603 4.9498267
106.62029 37.264557 4.9632158
106.61854 37.810055 4.9667339
106.61983 38.224499 4.9698253
106.27236 38.875477 4.9505653
106.29313 39.268082 4.9552846
106.64975 39.297047 4.9807663
106.68768 39.656181 4.9867744
106.7552 40.15432 4.9964857
106.39925 41.816399 4.989254
106.4576 42.166847 4.9978762
104.96072 44.215813 4.9150496
105.15752 44.343224 4.9315357
53.260658 45.877884 4.9173517
53.054798 46.374001 4.8662601
53.659657 46.370789 4.8491521
104.28313 46.986633 4.9086685
104.33221 47.19194 4.9161544
38.943176 47.928471 4.6880636
104.25001 47.710587 4.9195905
38.703667 48.088348 4.7029748
50.246643 48.427189 4.7440886
53.799046 48.49004 4.6007452
104.41475 48.069519 4.9392838
50.147667 48.829399 4.7031317
53.294598 48.80444 4.5782762
52.5979 49.24057 4.5499401
51.358936 49.675037 4.5480227
52.867863 49.524555 4.508141
36.815994 50.334564 4.7798877
50.183949 50.416077 4.5196753
37.782661 52.21611 4.5631676
38.067947 52.019051 4.5405746
37.959896 52.82436 4.5092154
52.548485 52.751728 4.955698
50.387066 53.420261 4.9575386
50.685524 53.138508 4.982832
51.338535 53.347126 4.9172931
51.72134 53.354172 4.8983603
52.331917 53.39785 4.8662043
51.994057 53.506912 4.8633695
52.230114 53.704208 4.8240318
47.977692 54.463264 4.9770432
49.860203 55.932755 4.6166492
48.370293 56.412453 4.6612377
49.819267 56.314327 4.5629439
44.99197 56.896179 4.9485478
45.152782 56.824097 4.9384775
48.201775 56.859268 4.6115351
48.527107 56.504097 4.6345844
48.313725 57.129932 4.5627031
46.704006 57.969711 4.6039276
45.562614 58.062515 4.7239299
47.226505 58.309486 4.5007329
49.340706 58.002121 4.9947343
44.404579 58.864861 4.7710028
44.734451 58.739964 4.7421131
45.070168 58.624184 4.7124929
47.818176 58.868904 4.9911909
48.220192 58.843464 4.9520493
48.589321 58.976654 4.8900304
40.3559 59.252865 4.6205969
47.99234 59.000908 4.9487443
48.241196 59.052025 4.9128132
40.372593 59.732983 4.5826626
40.398083 60.250996 4.5414848
40.411846 60.639305 4.5120244
40.53738 62.856461 4.9893203
40.555065 63.261093 4.9522161
40.576843 63.780216 4.9062161
40.59473 64.272476 4.8648095
40.61871 64.752472 4.8247509
40.642925 65.251968 4.7850504
40.663269 65.763588 4.7473617
21.695366 66.39386 4.6230392
22.33206 66.347687 4.5471973
40.684719 66.254074 4.7129097
40.706963 66.758064 4.67975
40.731213 67.247505 4.6492419
40.752304 67.744888 4.6216106
40.775738 68.256569 4.5955086
40.793842 68.742348 4.5745301
40.821838 69.244141 4.5536618
40.844051 69.755157 4.5372453
40.867668 70.246132 4.5242047
23.472063 70.807411 4.6738701
23.608072 70.552567 4.6416092
40.901237 70.75692 4.7292795
40.929314 71.25592 4.7545238
40.952023 71.752304 4.7273202
40.978909 72.246895 4.7370534
40.98806 72.706627 4.5597239
41.012142 72.783592 4.8987446
40.999744 73.017097 4.5201387
41.027828 73.266495 4.7500701
41.052052 73.751785 4.7728744
41.07251 74.208611 4.667798
41.096889 74.736359 4.5811534
39.860237 77.82238 4.704124
110.89468 77.941856 4.9816771
44.011692 78.044754 4.5126181
38.263859 78.727837 4.6148429
40.409531 78.810974 4.7028055
40.535721 78.84716 4.6796894
41.938122 78.908493 4.8127952
42.110023 78.771866 4.7486434
42.741383 78.795921 4.5920782
39.091843 79.369011 4.5363588
42.26899 79.139328 4.7645454
42.575634 79.07785 4.6775494
43.29277 79.13916 4.5075817
42.325176 80.347313 4.5128574
39.21088 80.725151 4.6898003
45.113895 80.857498 4.7632823
38.645027 81.40564 4.8853521
39.632954 81.223488 4.6835461
45.223999 81.115532 4.7970204
45.773308 81.403587 4.7331638
46.123611 81.264183 4.6131725
46.80888 81.463051 4.5058494
36.199501 81.567947 4.6998334
38.261738 81.502655 4.9674468
45.910519 81.703827 4.7775612
46.105072 81.620544 4.7100759
46.81356 81.607574 4.5443912
47.072739 81.732216 4.5210896
45.999203 82.488655 4.9673424
46.263954 82.316803 4.861249
46.542503 82.129456 4.7478199
47.836895 82.330772 4.5361161
37.386948 82.802208 4.6826797
39.926193 82.53894 4.8280053
44.68306 82.976814 4.9672675
46.222389 82.905304 4.6461282
46.585052 82.763474 4.5420599
48.034153 82.593277 4.577394
48.973835 82.95665 4.5273886
49.056042 82.930504 4.5058675
36.548325 83.335342 4.8724661
41.31646 83.298386 4.7172461
46.453514 83.433197 4.7393436
47.052071 83.084915 4.5414143
48.296246 83.324348 4.7568274
48.700634 83.141212 4.6309395
49.181892 83.259895 4.5929995
49.89682 83.480377 4.5648127
50.147614 83.425514 4.5145817
36.805988 83.706902 4.8853769
40.979149 83.98967 4.8894758
41.172955 83.669243 4.8033857
44.037506 83.80986 4.8353333
47.860519 83.588539 4.9153886
48.033798 83.50322 4.8582711
49.926643 83.531113 4.5779381
50.186478 83.589539 4.5651526
101.27775 83.983437 4.9649334
101.72974 83.800919 4.9731169
47.46957 84.007538 4.7216544
47.510292 84.010933 4.716146
50.435524 84.305862 4.7802181
100.92723 84.351959 4.9798737
101.15675 84.134911 4.9723096
34.211723 84.69223 4.6339254
46.327015 84.857201 4.7049303
50.877949 84.861282 4.9271011
51.191936 84.799294 4.8781686
52.717724 84.696167 4.7457008
99.933723 84.922104 4.978776
100.09232 84.702789 4.9667525
100.5871 84.546265 4.9792962
41.388447 85.467278 4.5292621
41.820213 85.436676 4.8321052
42.2868 85.452293 4.9499993
44.369667 85.167206 4.5969801
44.609539 85.310181 4.5928898
50.714561 85.248703 4.7826257
52.594452 85.348648 4.9808865
99.637009 85.208969 4.9897766
34.918259 85.636604 4.6692991
38.374199 85.857491 4.9771118
40.663445 85.938126 4.6947174
42.344795 85.766197 4.7265124
45.091972 85.873741 4.644084
49.874619 85.743103 4.9169145
50.450523 85.547295 4.8025575
50.77055 85.79789 4.8528919
35.343735 86.309418 4.7062802
38.6922 86.174934 4.9834962
39.34903 86.05648 4.8803377
39.707905 86.158264 4.8501291
40.09713 86.148415 4.7992148
42.190311 86.259857 4.560463
43.011723 86.140732 4.9774723
50.935253 86.052505 4.9180307
51.26445 86.179497 4.9333348
51.968563 86.064911 4.8537245
52.004589 86.085777 4.8582878
35.14399 86.906784 4.8018413
41.890049 86.965874 4.713449
42.467228 86.660751 4.5949779
42.678707 86.714943 4.5797601
46.311172 86.836563 4.7013812
46.535923 86.956894 4.7024851
51.629108 86.565186 4.6066813
52.590023 86.609764 4.9947543
35.249481 87.306419 4.8412433
41.98642 87.053871 4.7169442
42.083847 87.192787 4.7290664
43.250664 87.45285 4.6427298
46.737373 87.305603 4.7574444
48.222408 87.300911 4.6093917
50.679367 87.163429 4.8302093
52.252483 87.394699 4.8036466
35.20594 87.814972 4.9105277
42.911911 87.965981 4.7690911
43.222919 87.601746 4.6717105
43.583958 87.691467 4.64855
48.736908 87.766724 4.6710167
49.137691 87.868652 4.6617832
49.660378 87.973717 4.6465058
50.436176 87.645538 4.9785681
51.378746 87.72097 4.9379082
36.022278 88.470566 4.9122653
36.847313 88.392807 4.8192592
42.540993 88.230789 4.8557529
43.237427 88.464836 4.822021
43.74612 88.350739 4.7486153
47.321659 88.260574 4.9108472
47.778419 88.282806 4.8730001
49.297966 88.165077 4.718051
49.717632 88.109406 4.6740513
36.507721 88.569351 4.8765893
43.333138 88.628555 4.8410993
43.786659 88.526749 4.7759933
45.995461 88.503799 4.5590115
49.810436 88.512741 4.7618179
50.044598 88.547356 4.753974
43.378208 89.417496 4.9777985
43.837372 89.424294 4.9330258
44.016148 89.417007 4.9140701
32.405167 89.691635 4.550293
41.736084 89.839203 4.5667973
44.023132 89.847343 4.992075
44.795597 89.755783 4.9020042
45.075569 89.970093 4.916275
46.183704 89.808617 4.7889361
32.033623 90.102364 4.6220207
32.57428 90.046959 4.5760779
43.518059 90.426888 4.5090361
44.94128 90.093124 4.9514346
31.367056 90.679436 4.7335401
43.605782 90.521301 4.516592
31.555756 91.230003 4.7792544
43.629257 91.026367 4.5920248
68.072922 91.474373 4.9871864
68.03804 91.549469 4.997972
75.364845 91.895416 4.515285
75.506821 91.759285 4.5033154
46.199696 92.106064 4.5797682
75.311523 92.157333 4.5472336
75.507568 92.487167 4.597959
75.674103 92.736908 4.6371155
42.544743 93.106323 4.9938102
44.84 93.600227 4.906426
51.284763 95.673584 4.9022408
51.72298 95.863525 4.9172454
52.165581 95.849892 4.8991556
51.766235 96.01873 4.9413266
52.410835 96.07106 4.9274173
52.550785 96.317795 4.9636621
92.268143 98.935638 4.5045614
54.801735 99.315826 4.5449305
45.99688 99.852936 4.9357986
46.180614 99.530312 4.8861151
50.29438 99.566505 4.7215409
55.315353 99.904442 4.6078181
92.927299 99.783066 4.6024857
93.140297 99.64521 4.5910544
46.31461 100.20505 4.9666271
52.612701 100.45394 4.7574339
54.306835 100.25281 4.6804366
55.327866 100.01377 4.6216841
52.830124 100.79008 4.794323
53.097267 100.99361 4.812511
53.97966 100.77909 4.7582455
54.512341 100.76247 4.7409601
53.899586 101.01997 4.7919121
54.129185 101.13461 4.8001947
54.676102 101.21378 4.7951159
94.96228 101.32998 4.7930732
53.009121 101.90189 4.9334445
101.3508 119.37817 4.539804
101.52379 119.07495 4.5097342
100.89699 119.88028 4.5926762
101.13783 119.64578 4.5674467
100.35521 120.45593 4.6538315
100.60135 120.23453 4.6296082
99.31115 120.87462 4.7103171
99.869644 120.93584 4.7055655
100.1649 120.74622 4.6832266
99.300148 121.34833 4.7529316
34.155289 121.8181 4.777842
98.990387 121.97127 4.8144903
58.996574 129.01634 4.5004644
59.311905 129.28003 4.5058784
59.640495 129.6293 4.5159492
62.365051 132.0932 4.572619
62.715401 132.35773 4.5766511
63.209797 132.83478 4.5885134
63.692635 133.29182 4.5995207
64.036667 133.53677 4.6024985
106.761 40.695301 5.0026021
106.77739 41.191971 5.0093737
106.78265 42.351624 5.0241294
106.87331 42.681107 5.0352726
106.89659 43.557377 5.0496106
106.31332 44.276596 5.0169625
106.88564 44.316765 5.0606294
51.165585 44.870659 5.109828
106.95428 44.650436 5.0713067
106.98573 45.121181 5.081728
53.29483 49.148468 5.4759684
53.564056 49.303936 5.4449067
52.846718 50.065269 5.3513031
48.66378 50.614105 5.4871874
49.264626 50.517487 5.4603024
49.675106 50.994072 5.3629947
39.202213 51.477898 5.4272914
49.845867 51.267754 5.3115897
39.074932 51.921814 5.404212
49.603489 51.675983 5.2660022
50.010452 51.590752 5.2533464
50.665939 51.947899 5.1622901
51.333481 51.622627 5.1770968
38.195889 52.195114 5.4975953
38.888306 52.251446 5.3997984
39.142086 52.311562 5.3610015
47.609337 52.232281 5.3317466
50.899437 52.280342 5.0999432
52.658947 52.238129 5.0293484
37.887115 52.856228 5.484623
38.806488 52.737278 5.3685966
49.124763 52.815559 5.1291542
51.133839 52.687695 5.0266466
107.40373 52.934883 5.3014536
37.752411 53.757057 5.4302592
37.335743 54.089127 5.4642954
37.818787 54.136673 5.3902731
48.10651 54.054646 5.0255008
106.98918 54.832161 5.3281255
106.9588 55.068764 5.3336291
107.02859 55.25629 5.345953
107.51618 55.380127 5.3913527
38.344856 55.859905 5.1785154
38.708824 55.8288 5.1273661
42.629066 55.994614 5.3761683
44.345936 55.85144 5.1665931
107.53802 55.81147 5.4085665
38.284328 56.173019 5.1635771
38.765907 56.329609 5.0800185
42.597733 56.418262 5.3282743
44.218388 56.252285 5.1302123
48.744263 56.130077 5.3864813
107.56802 56.232727 5.4264627
42.33947 56.645241 5.3378057
43.026199 56.899929 5.2080812
107.58886 56.741867 5.4472675
46.428604 57.091789 5.4619861
107.61205 57.270554 5.4695082
42.983509 57.787506 5.1054549
43.195374 57.815903 5.0713191
43.711899 57.751637 5.0061917
48.887871 57.941257 5.0465899
49.328033 57.880627 5.018055
49.543667 57.591904 5.0521259
107.63576 57.67239 5.4873214
42.755844 58.16441 5.0938039
46.692684 58.223145 5.235754
48.402992 58.272141 5.034358
48.654453 58.055969 5.0481834
49.21545 58.003586 5.0054612
44.248459 58.764797 5.4905663
44.74646 58.830357 5.4035726
46.890697 58.946556 5.0875902
47.334118 58.924046 5.0375109
47.659718 58.718616 5.0353794
40.385376 59.214207 5.3606925
45.222286 59.088066 5.2913814
45.77998 59.418495 5.1570158
46.236382 59.412029 5.0947523
46.760666 59.359306 5.0341187
40.406815 59.75349 5.3021588
40.429192 60.271954 5.2466397
40.451214 60.771503 5.1941848
40.466133 61.247616 5.1463265
40.489491 61.711506 5.0991602
40.510906 62.24588 5.047215
40.529022 62.627159 5.0104771
40.623455 64.241127 5.4751515
40.646839 64.759239 5.4194937
40.664742 65.25312 5.3695922
40.687244 65.730896 5.3222871
40.71199 66.256737 5.2728114
40.73481 66.760872 5.2282491
40.754642 67.246826 5.1885896
40.778866 67.744919 5.1498055
40.799397 68.254547 5.1144948
40.822567 68.769493 5.081676
40.847267 69.269066 5.0528169
40.8685 69.751381 5.0291982
40.890594 70.24128 5.0088615
40.8922 70.515503 5.0020342
96.955978 73.413452 5.3885627
97.205055 73.182373 5.3948421
96.334496 73.744606 5.3555083
97.124893 73.551147 5.4140391
97.721176 73.851044 5.4907122
41.090546 74.315109 5.0062056
96.43119 74.200989 5.3980274
96.604668 74.498611 5.4361987
41.103703 74.808411 5.0328956
41.120468 75.404274 5.0716214
96.415222 75.09845 5.4643736
41.160534 75.901146 5.1025085
112.18792 78.305054 5.0845861
42.315018 78.604393 5.0958629
42.737171 78.857727 5.0146208
112.2253 78.714264 5.1202688
112.28467 79.229095 5.1662235
110.78581 79.952545 5.1419897
112.2631 79.858711 5.2175889
38.169426 80.244263 5.3885508
112.21854 80.373077 5.2584925
42.818886 80.847221 5.3672094
108.69536 80.952713 5.1092544
109.36293 80.632454 5.1193995
110.3159 80.518082 5.1634002
108.68706 81.147339 5.1255827
37.171295 81.688255 5.1886907
38.316261 81.967545 5.0236273
110.49191 81.925705 5.2947907
110.6768 81.642288 5.2805071
37.425972 82.49044 5.2565742
37.711788 82.256462 5.1723542
38.321877 82.026779 5.0311666
44.214809 82.198105 5.3126183
44.80566 82.099937 5.143465
110.61405 82.248703 5.3299513
37.601147 82.935913 5.2912116
40.171078 82.669861 5.3496065
44.573586 82.715065 5.3565264
110.42679 82.525368 5.3437867
110.52646 82.750671 5.3692999
37.795616 83.107399 5.2830701
38.990578 83.297195 5.1064177
41.146484 83.236862 5.2585702
43.735775 83.144463 5.2035379
44.649555 83.114838 5.0069451
111.2953 83.362083 5.4667811
36.137131 83.971359 5.0154386
44.109287 83.78318 5.2765398
102.81764 83.727547 5.026792
103.15413 83.603966 5.0341654
110.70623 83.891541 5.4813828
111.02082 83.633644 5.4757404
38.090897 84.141602 5.3928843
40.823563 84.137321 5.4927387
46.156319 84.487495 5.0700612
109.91163 84.489609 5.4913516
46.194313 84.811142 5.1505299
34.884541 85.494835 5.3988686
41.841885 85.36792 5.0006618
44.395931 85.190536 5.0794377
44.525791 85.286354 5.0804057
50.357605 85.458191 5.183639
50.562435 85.244278 5.0894957
51.431572 85.309326 5.0365562
99.615173 85.348244 5.0019007
100.18124 85.14241 5.0133376
34.819954 85.757767 5.4443908
38.321693 85.972427 5.0012989
42.273148 85.8619 5.0294218
49.845695 85.600616 5.2873936
51.26413 85.752441 5.2043066
51.824135 85.677246 5.1383734
52.129215 85.657623 5.1130085
98.97036 85.90741 5.0205145
99.617828 85.705162 5.036366
35.488686 86.26722 5.4244556
38.358711 86.381149 5.0583663
39.966183 86.465637 5.4873099
42.138203 86.281738 5.1292496
43.225937 86.162422 5.4892178
45.401085 86.028114 5.1199965
45.686234 86.299545 5.1444111
50.595364 86.396866 5.4846888
51.218849 86.273575 5.3894639
98.898827 86.227142 5.0477509
38.267212 86.531677 5.0932288
38.799683 86.726784 5.0545759
41.647141 86.702057 5.2807512
42.116352 86.58197 5.190145
42.781311 86.667786 5.1131654
46.357063 86.750015 5.1636715
46.687351 86.728233 5.1154923
50.28664 86.709099 5.1738067
50.909966 86.720169 5.1267772
51.371834 86.768799 5.1095204
51.708935 86.753654 5.0840988
52.243835 86.763603 5.058497
52.628311 86.651085 5.0060925
98.291214 86.902763 5.0812035
98.716499 86.686035 5.0828462
32.253658 87.457306 5.1767464
41.607231 87.307953 5.4033136
46.188007 87.040451 5.2581253
48.490467 87.480797 5.103189
50.398781 87.349442 5.3615341
50.601776 87.328156 5.3387356
51.273682 87.23127 5.2599792
51.734287 87.201744 5.2222819
98.200134 87.047165 5.09061
98.664619 87.334824 5.1443214
31.885176 87.571144 5.2301278
32.256844 87.955116 5.2374644
42.772045 87.96637 5.3741174
43.404804 87.683411 5.2334561
47.590282 87.737755 5.265656
48.135571 87.8032 5.2242837
48.651039 87.722992 5.1513982
49.147831 87.881996 5.1470156
49.698029 87.952682 5.1186604
50.263123 87.921104 5.0660605
50.825829 87.52549 5.3827252
98.822845 87.545921 5.1739297
30.915939 88.027649 5.3896999
31.774578 88.143532 5.3120041
32.359627 88.239502 5.2618446
42.79298 88.151917 5.4090385
43.910564 88.48687 5.3361855
45.220757 88.480705 5.1800981
48.917946 88.072624 5.2187901
49.336128 88.140121 5.1995654
49.67593 88.243874 5.1990685
50.446854 88.155228 5.1163793
50.640228 88.117722 5.0927792
98.649162 88.100571 5.2203493
99.228577 88.254906 5.2670488
31.986099 88.512207 5.3351655
32.314892 88.61805 5.313725
32.845039 88.72934 5.2720966
43.925716 88.713783 5.3821173
44.139954 88.905853 5.3969312
45.33704 88.543297 5.1805596
45.737247 88.64785 5.1591825
98.954781 88.611382 5.2884884
99.284851 88.888298 5.334321
32.647579 89.217026 5.3544855
41.657963 89.411865 5.1580687
99.351593 89.25766 5.3757005
33.0112 89.693352 5.3779449
33.897884 89.945694 5.3204122
44.072655 89.937737 5.0038848
46.918888 89.934494 5.3266153
47.353401 89.81588 5.2599759
47.544838 89.917145 5.2659502
99.43631 89.718781 5.4276905
32.786293 90.342041 5.4849768
33.389999 90.060883 5.3869405
33.56826 90.034668 5.3654284
43.992908 90.182785 5.0565658
44.020657 90.491966 5.1108818
47.239136 90.011917 5.3150263
47.571766 90.022339 5.2876296
99.479141 90.357437 5.4963088
99.523911 90.095779 5.4714079
42.757904 90.773499 5.2852731
43.872364 90.558456 5.137218
43.913151 91.164169 5.2453284
44.258862 91.07032 5.1959567
44.953346 91.373634 5.1907854
46.655754 91.498177 5.0750299
42.067085 91.555634 5.4960833
46.56295 91.56665 5.0954056
68.010902 91.633179 5.0106511
39.91328 92.284012 5.0821257
42.573933 93.198929 5.0058308
43.709435 94.237579 5.0844069
46.96431 95.967545 5.1555557
47.111382 96.281464 5.1984291
48.460915 96.474747 5.1592374
48.641754 96.470795 5.1496844
47.261051 96.640808 5.2487226
47.940868 96.736023 5.2283225
48.225281 96.601868 5.1918812
48.799969 96.579018 5.1597486
53.482525 96.973717 5.0434651
53.296432 97.146896 5.0777006
53.666088 97.300964 5.0924525
54.182861 97.364281 5.0887542
53.922569 97.612762 5.1369491
54.27766 97.64209 5.1323471
54.557869 97.764786 5.145452
55.341316 97.801903 5.133172
55.567959 97.994576 5.1601229
54.891293 98.454315 5.2514548
55.214397 98.130165 5.1903396
55.824677 98.140991 5.1790075
56.16489 98.235474 5.1878934
54.84898 98.598549 5.2763705
56.425117 98.92202 5.2962422
36.943592 99.398811 5.3621888
37.157249 99.269531 5.3336496
56.669128 99.10685 5.3223147
36.664158 99.6315 5.4072514
42.128159 102.35828 5.4410901
42.148041 102.54143 5.4632273
47.294113 103.47565 5.3456016
47.269798 103.59647 5.3621893
47.758167 103.76752 5.3642859
48.149269 103.50522 5.3145881
49.271664 103.77917 5.306437
49.622227 103.80164 5.2961898
46.731426 104.4185 5.490766
102.45813 106.41399 5.4308524
102.27837 106.54091 5.4417791
42.92506 110.95542 5.194283
43.054718 110.97137 5.1911669
93.757233 127.79624 5.4421105
93.364906 128.23465 5.4899616
75.45153 22.180084 5.8019762
75.771408 22.207703 5.8099451
76.673561 23.811646 5.7326417
76.987587 25.0284 5.6643057
83.536758 25.756664 5.9110484
77.833534 26.332561 5.6133161
81.055786 26.058159 5.7709517
84.982712 26.123989 5.9676614
85.284195 26.201982 5.9800849
79.329453 26.53826 5.6634464
79.915298 26.689964 5.6803284
80.217178 26.752811 5.6903148
81.103447 26.743008 5.7325587
77.539581 27.328655 5.538527
78.08876 27.468918 5.5525155
81.313171 27.14856 5.7188869
84.926979 27.294823 5.9009004
85.437714 27.628536 5.9121709
86.841431 27.705807 5.9910197
85.732361 28.25736 5.8963714
86.27462 28.159672 5.9336467
90.634857 35.986183 5.8872323
90.668396 36.49485 5.8714628
90.712387 36.852669 5.8622518
91.025299 36.934376 5.8843417
92.43557 37.263206 5.988059
92.411118 40.192581 5.8984756
91.98587 41.308014 5.831295
91.98925 41.54295 5.8254652
92.000519 41.769669 5.8206429
90.146851 42.572277 5.6364703
91.387611 42.760956 5.7412925
92.249123 42.723644 5.8196416
93.06337 42.743866 5.8932137
92.32872 43.116787 5.8178144
92.418541 43.610748 5.815187
92.525314 43.862419 5.819706
92.726601 44.150074 5.8325653
93.095734 44.306305 5.8640113
92.985275 44.613701 5.8478198
93.109329 44.848827 5.8552389
93.308189 45.241882 5.8673096
94.322784 45.138451 5.966392
93.529343 45.504913 5.8841434
53.071812 47.717545 5.6987896
53.733326 47.997868 5.6377335
53.259064 48.089798 5.6368775
38.087761 49.748848 5.7256665
49.047462 49.695553 5.5967731
38.178631 50.109257 5.6817579
36.141319 50.877464 5.8927069
35.446098 51.146744 5.970921
37.724205 51.642433 5.6088629
51.7076 51.955246 5.9582086
37.331772 52.449986 5.5959878
50.503418 52.10677 5.9945631
51.884815 52.337635 5.8787246
52.124043 52.271042 5.8807521
50.401527 52.646675 5.9006948
52.299519 52.812187 5.7723684
49.143867 53.226456 5.8818951
50.225716 53.121086 5.8240995
48.95266 53.686604 5.8129315
49.284294 53.77903 5.7698984
49.787025 53.867115 5.716217
49.803795 54.282356 5.6386738
50.103344 54.246899 5.624105
45.672848 54.736389 5.9584613
46.077164 54.989929 5.8663573
46.651428 56.484039 5.5401359
43.419731 57.99041 5.7425408
43.7878 57.655384 5.7364988
44.064949 57.972713 5.64363
107.66736 57.981499 5.5023813
42.503967 58.460293 5.8247051
43.437683 58.30632 5.6910567
43.536995 58.346542 5.6687651
107.66507 58.295254 5.5149307
42.67905 58.894333 5.7306595
43.102688 58.934631 5.6517148
43.922321 58.776146 5.540453
44.068981 58.773304 5.5175328
107.68464 58.699863 5.5333314
42.413101 59.02433 5.7583303
43.295315 59.099018 5.5945754
43.674904 59.13604 5.5255814
107.73434 59.207714 5.5590987
107.7559 59.71685 5.5829782
107.78013 60.223003 5.6075234
107.80003 60.723316 5.6319151
107.83933 61.226627 5.658711
40.522457 61.871807 5.7541986
107.84695 61.721237 5.682796
40.544937 62.263386 5.7042251
107.89505 62.203979 5.7104244
40.561031 62.774006 5.643364
107.91492 62.802593 5.7418342
40.579994 63.268024 5.585391
107.95327 63.294792 5.7701674
40.604988 63.748386 5.5292778
107.96607 63.791138 5.7969975
107.99162 64.283302 5.8252335
108.76756 64.426773 5.9023914
39.614662 79.232986 5.9828763
38.539993 81.778099 5.5380311
38.358059 82.410484 5.6782322
43.967487 82.722656 5.5040951
36.24181 83.374809 5.5942969
39.111229 83.487953 5.7083144
41.222946 83.21981 5.7712326
34.739796 83.772278 5.9167905
40.77623 84.301483 5.5336752
110.43816 84.357834 5.5086751
110.66693 84.187927 5.5059977
41.563576 85.409637 5.6117911
44.490913 85.243347 5.5661945
44.623493 85.336105 5.5657682
40.083202 85.959351 5.9939556
44.605076 85.676186 5.6574841
39.27227 86.325859 5.5696192
39.712685 86.440712 5.5217705
40.117817 86.007034 5.9973354
40.993694 86.395752 5.9206882
42.213787 86.436867 5.7187781
42.716331 86.382095 5.6225014
43.075119 86.3274 5.5510225
33.250854 86.936462 5.8263721
39.441418 86.544182 5.582387
39.839508 86.718819 5.5530066
40.181423 86.794838 5.5150328
42.690163 86.909065 5.7448807
45.771847 86.540939 5.6918759
50.812477 86.73658 5.5838199
51.271553 86.719299 5.5411935
34.332687 87.209877 5.7172718
34.515766 87.000137 5.6621747
42.638363 87.048569 5.7848167
48.832687 87.301804 5.9836483
49.216042 87.33242 5.9484816
49.751671 87.14431 5.8252501
50.304634 87.057495 5.7402096
33.434883 87.869133 5.9342713
34.053467 87.566917 5.8067584
34.914684 87.65464 5.7038226
35.225826 87.632835 5.659121
46.300968 87.618294 5.9140263
48.037838 87.75827 5.7250133
48.892723 87.724037 5.6182752
49.265984 87.834137 5.6135511
49.62891 87.985634 5.6244397
35.291374 88.419113 5.7683406
48.741383 88.097191 5.7470913
49.26194 88.138695 5.7064509
49.682137 88.041336 5.6365795
42.840141 88.692154 5.5134358
46.046688 88.972733 5.7624049
47.01738 88.90303 5.6313653
42.666927 89.211403 5.6426816
45.982697 89.21669 5.8322248
46.890903 89.057404 5.6854739
47.155376 89.194061 5.6918263
48.334743 89.644981 5.6915512
41.92905 90.416122 5.9857225
42.302364 90.447891 5.9455848
43.016937 90.093857 5.7835197
33.163818 90.765503 5.5021768
43.394135 90.909271 5.9123788
43.715397 90.630798 5.8155208
99.785477 90.625725 5.5404577
32.907719 91.134819 5.5766239
33.06617 91.183685 5.567203
100.34493 92.451241 5.763124
100.50616 92.322647 5.7576733
102.57583 92.474136 5.8811722
42.939491 92.573624 5.5974164
99.757111 92.701355 5.7597985
100.07094 92.538277 5.7583499
102.02161 92.666641 5.8728881
99.211327 93.326927 5.7999015
99.874786 93.115936 5.8107357
97.488937 93.911636 5.7774463
98.309158 93.891418 5.8163652
98.577347 93.815643 5.8214884
99.114914 93.752235 5.84165
93.316597 94.366745 5.6232157
93.665642 94.2715 5.62924
95.751846 94.42646 5.7490001
96.110847 94.221336 5.7435536
97.390572 94.142952 5.7983341
98.177032 94.012054 5.8231044
92.875504 94.927689 5.6668215
93.325348 94.542191 5.643836
93.502167 94.971512 5.7019587
94.819885 94.539253 5.7161236
95.213821 94.541199 5.7356129
95.946609 94.691559 5.7886457
98.673027 94.952278 5.9528046
92.694366 95.18293 5.6879101
93.962769 95.017303 5.729425
47.360893 95.997826 5.9064145
48.341351 95.898674 5.8265281
48.505524 95.999573 5.8370199
52.734116 95.691803 5.5823765
53.091484 95.854118 5.6036987
92.467392 95.751381 5.7438593
92.687866 95.524796 5.7276173
47.209919 96.260742 5.968051
48.573448 96.036514 5.8404675
51.65736 96.408943 5.7660704
53.607216 96.389122 5.6966004
92.488693 96.023376 5.7769666
92.578453 96.333344 5.8178911
53.435596 96.80632 5.7857018
53.686291 96.869286 5.7913933
92.713089 96.758438 5.8747153
52.984497 97.010498 5.8405614
54.301731 97.490479 5.9008374
92.729591 97.034912 5.9084916
53.996372 97.616623 5.9339294
54.318245 97.750458 5.9529252
54.593719 97.751984 5.9467521
93.264893 97.506302 5.9895949
50.682957 99.331604 5.5311232
50.275333 99.950439 5.649879
46.680935 100.07314 5.8390784
53.082001 100.38394 5.6210394
52.95047 100.8127 5.6962337
53.848022 101.12395 5.7210999
36.864288 101.95834 5.6788993
37.305489 101.74924 5.6276245
37.78112 101.77518 5.6034102
37.303532 102.16718 5.6790614
37.41758 102.84595 5.7560906
37.437786 103.1485 5.7922659
44.401539 105.02775 5.6713829
45.498894 105.05203 5.6253524
46.171791 105.47558 5.6507459
45.958157 105.51144 5.6645117
46.053143 105.50925 5.6601529
43.464188 107.01096 5.9682741
101.90802 107.26787 5.5137239
29.967901 112.5556 5.8362799
30.245403 112.54172 5.823885
30.528433 112.51595 5.810194
36.972481 112.78676 5.5847278
40.411152 116.0079 5.7596536
40.719143 116.27563 5.7737484
45.022961 116.3132 5.6263299
41.152573 116.65787 5.7941823
44.743118 116.59631 5.6626596
46.253876 116.91513 5.6414304
41.896236 117.33875 5.8318701
42.011448 117.46798 5.8399744
44.248585 117.16695 5.7335482
46.394459 117.01456 5.6461015
46.708241 117.30896 5.6634254
42.273144 117.67387 5.8501587
42.533272 117.89261 5.861639
47.243217 117.77444 5.6896248
42.802074 118.1518 5.8766747
43.128719 118.3767 5.8864975
47.714111 118.23057 5.7171931
47.912785 119.13449 5.796207
48.622643 119.78072 5.8341527
49.355446 120.3916 5.8682427
50.257965 121.21381 5.9171729
50.55492 121.46802 5.9317961
50.786278 121.69937 5.9463749
51.020401 121.9138 5.9592819
51.257351 122.11697 5.9710569
93.123962 128.49184 5.5182934
92.876541 128.75131 5.5470018
92.40889 129.29071 5.6058226
92.641983 129.02901 5.5771384
91.882538 129.92413 5.6745877
92.09549 129.63135 5.6434073
91.37291 130.43723 5.7321467
91.638809 130.19588 5.7045131
91.161774 130.72803 5.7632046
89.823967 131.46437 5.8589759
90.783348 131.21312 5.8156323
89.578156 131.71889 5.8876019
90.352798 131.62567 5.8625846
91.425415 23.196045 6.499939
91.455719 23.710135 6.4765253
91.463104 24.248817 6.4506941
91.51725 24.745274 6.4302092
91.53228 25.269089 6.4061346
91.694763 25.568981 6.4026117
92.252594 25.557745 6.4401159
92.555145 26.058533 6.4374213
87.850845 27.36549 6.0698829
92.523712 34.28994 6.0967784
97.42041 35.162384 6.4721532
92.496193 36.536259 6.0167251
92.769913 36.536812 6.0390968
92.888977 37.223263 6.0268798
92.918716 37.590641 6.0179024
93.282814 37.640469 6.0469427
93.820709 37.663445 6.091783
94.282394 37.500248 6.1359048
94.732872 45.058914 6.0072603
53.452423 49.178677 6.4131274
51.536701 50.37886 6.2604499
53.347874 50.133091 6.2375832
41.709248 50.879395 6.1509495
52.488586 50.71011 6.1579823
52.759663 50.73185 6.1442399
53.251102 50.608162 6.1515374
39.07555 51.347641 6.4556432
50.794693 51.286728 6.1299229
51.180176 51.413452 6.0855308
51.507198 51.322151 6.0858884
52.370029 51.084148 6.0925989
52.914925 51.139374 6.0626621
53.1203 51.045235 6.0737362
50.585579 51.708389 6.0636053
51.279362 51.636261 6.0387263
50.415543 52.045662 6.0112548
37.745144 52.787289 6.4935694
38.237965 52.757011 6.4185233
38.768497 52.653503 6.3475871
39.095524 52.578472 6.3062515
37.661705 53.000538 6.4832582
37.534252 54.727333 6.3175559
45.433891 54.529808 6.0231204
38.602966 55.371849 6.0689039
38.478607 55.564056 6.0690656
38.615891 55.608994 6.0412145
110.06499 64.374435 6.0158615
110.17114 64.764809 6.0467992
110.16824 65.267502 6.074523
110.08627 65.792358 6.0969377
110.10663 66.292671 6.1276741
110.15509 66.787598 6.1612039
110.16077 67.293343 6.191998
110.19633 67.692841 6.2195382
108.50201 68.321396 6.1043282
108.491 68.611359 6.1214252
108.51985 68.896072 6.1420236
108.52988 69.280426 6.16747
108.5549 69.778053 6.202013
108.58247 70.253906 6.235857
108.62101 70.738258 6.2718124
108.65297 71.214966 6.3071356
108.67493 71.708488 6.3432488
108.70949 72.191345 6.3802714
40.949711 82.293289 6.1779461
35.625408 82.677475 6.2962184
39.580299 84.164574 6.3408384
40.434868 84.355003 6.1892414
38.968712 85.796661 6.1693134
39.403336 85.959366 6.1198411
40.827515 85.876442 6.4462671
34.685806 86.420662 6.3326049
35.206955 86.362328 6.2357459
35.72057 86.134209 6.1128278
39.282833 86.288757 6.2084131
40.486027 86.462822 6.0249958
42.2099 86.333771 6.2756367
39.482536 86.601318 6.2351146
39.764866 86.6082 6.1852026
40.392067 86.664169 6.0840259
40.654144 86.905136 6.0888033
42.153999 86.581863 6.3478642
32.278278 87.305733 6.0125313
40.197243 87.289742 6.2509036
40.718842 87.27681 6.1574292
43.793671 87.424248 6.2616644
48.594559 87.445007 6.0615182
32.402466 87.662437 6.0456119
32.503582 87.669357 6.0326753
40.305714 87.695244 6.3190689
48.538982 87.512917 6.0913277
49.257469 87.775909 6.0948796
32.370583 88.946823 6.2346845
32.949394 88.766472 6.1305232
33.101414 88.766815 6.1102095
42.469284 88.859253 6.2284875
48.288582 88.910843 6.041008
32.389133 89.038315 6.2455769
33.173183 89.283447 6.1772261
33.534935 89.182259 6.1142383
42.175365 89.33342 6.3844347
44.292648 89.128265 6.028378
46.960827 89.858948 6.4779162
47.105919 89.719139 6.4188604
43.343445 90.051643 6.3854842
41.893444 90.575485 6.0232964
42.050976 90.691345 6.0276966
40.917168 91.655418 6.370646
41.393967 91.664452 6.3126917
41.907124 91.968277 6.3137307
46.346111 91.711281 6.4351921
41.954613 92.030128 6.3211226
42.211346 94.41861 6.0073495
51.171215 95.490807 6.3358235
51.566505 95.443817 6.3069811
52.283516 95.293396 6.2422776
52.6138 95.395744 6.2547097
53.6446 95.446503 6.2351165
49.400341 95.716087 6.4830513
49.732605 95.712563 6.4629078
50.28244 95.804115 6.4544058
50.653736 95.84494 6.4449372
51.296368 95.528183 6.3390579
51.774738 95.723854 6.3649273
52.117622 95.710861 6.3481202
52.817566 95.617744 6.3007526
53.214264 95.587166 6.2809563
53.602818 95.584908 6.2692742
53.8922 96.24012 6.4179854
46.418709 96.508087 6.0692563
46.875511 97.167519 6.1686883
50.926994 97.47097 6.0102205
92.960144 97.885292 6.0212483
93.410721 97.861023 6.0388923
54.866055 98.175392 6.0261307
56.153278 98.457176 6.0596614
46.900909 98.621452 6.4544396
47.10907 98.641975 6.4455304
50.683456 98.752144 6.2787805
55.835262 98.890152 6.1516399
56.049953 98.93589 6.1573572
93.026215 98.660568 6.118237
93.653358 98.834259 6.167582
94.569504 98.975883 6.226182
50.889141 99.240829 6.368371
53.984417 99.159485 6.2456331
54.165508 99.434898 6.2965293
55.478073 99.074471 6.1949792
55.59919 99.04834 6.1875162
94.413712 99.078636 6.2315707
50.926319 99.802986 6.4800792
51.188484 99.761879 6.4609971
55.308186 99.8377 6.3519077
94.241486 99.844406 6.3171558
51.77224 100.04823 6.4959207
55.51049 100.16326 6.4135213
56.624199 100.2576 6.4143515
94.329613 100.27149 6.3734684
95.730164 100.42165 6.4541745
94.65979 100.76083 6.448288
46.773567 103.36021 6.3715663
47.931168 103.71408 6.3735137
48.161774 103.88002 6.3901448
49.352394 103.74884 6.3159399
49.59166 103.85297 6.3230729
49.827545 104.6402 6.443501
50.037735 104.9593 6.4877725
52.688789 104.86198 6.3760977
104.29219 115.39137 6.4193544
104.88744 115.42039 6.4288721
105.09384 115.29089 6.416924
104.05959 115.64064 6.4442973
52.14257 122.89034 6.0165982
52.306183 123.06462 6.0280194
54.174137 124.71106 6.1265697
54.705872 125.20019 6.1567822
55.250813 125.68347 6.1861367
55.619156 125.99638 6.2047272
55.806904 126.18222 6.2167163
