# .PCD v0.7 - Point Cloud Data file format
VERSION 0.7
FIELDS x y z
SIZE 4 4 4
TYPE F F F
COUNT 1 1 1
WIDTH 1503
HEIGHT 1
VIEWPOINT 0 0 0 1 0 0 0
POINTS 1503
DATA ascii
-28.153095 7.0526762 7.368906
-27.369392 7.0943384 7.2564363
-13.733067 7.3170757 7.4036903
-42.791298 7.670043 7.4343958
-42.724705 8.2718744 7.4302921
-19.396664 9.9994793 7.4393339
-19.318512 10.230786 7.4346042
34.087479 14.424868 7.4731197
36.190952 14.356684 7.0416512
32.479736 14.925466 7.1732721
32.81292 14.931229 7.2501721
33.204372 14.826956 7.3245716
-26.844975 16.234442 7.4436102
-26.290154 16.200014 7.3664207
-25.784519 16.179335 7.2966328
-25.29068 16.159397 7.2285671
-24.792583 16.126556 7.1594095
-24.337151 16.113949 7.0970554
-23.842709 16.091139 7.0290213
-9.2862587 18.271467 7.4162345
-8.7932892 18.296574 7.3327184
-8.25846 18.279524 7.237329
-7.7346435 18.253206 7.1433754
-7.2130432 18.225477 7.0503063
-13.669398 18.501661 7.0350122
-5.8328323 19.749949 7.0315275
-5.7939186 20.234608 7.0957551
-5.7838335 20.545599 7.1398983
-5.7189322 21.438957 7.2638645
-5.7035036 21.766161 7.3115406
-5.6756306 22.163971 7.3686934
-8.9033346 25.484013 7.1447468
-8.890873 25.801523 7.1845326
-7.4348946 25.8671 7.0177989
-8.8595095 26.280708 7.2435851
-7.8783865 26.093344 7.1007881
-7.091301 26.339539 7.0419226
-8.8479805 26.7883 7.3095312
-7.0506182 26.90509 7.1152668
-6.8939161 26.715034 7.0711021
-6.3217344 26.756641 7.0123463
-6.7321892 27.064854 7.1015687
-6.2321634 27.002817 7.0370264
-6.6163044 27.754511 7.1859117
-6.126111 27.702526 7.1249804
-6.7207842 28.164194 7.2556496
-6.2101917 28.171062 7.2013617
-5.7051888 28.202246 7.1521478
-4.6046591 28.466476 7.077631
-6.3847017 28.68214 7.293807
-5.4139977 29.287594 7.2816372
-6.3804865 29.672066 7.4376278
-6.2510767 30.126448 7.4912529
58.414654 -22.025362 7.9575787
57.29953 -21.904953 7.8150058
57.945717 -21.96719 7.8970575
58.355385 -21.70871 7.9293637
58.333824 -21.394611 7.9060335
-14.780057 -19.511951 7.9638081
-14.197011 -19.559477 7.8853126
-13.865796 -19.631269 7.8465786
-12.891801 -19.667673 7.7126312
-14.692133 -19.4487 7.943409
1.3665037 -19.028715 7.6988859
-15.584142 -18.541189 7.9670439
-15.468074 -18.608831 7.9576159
-14.737585 -18.790352 7.871016
-14.431361 -18.957788 7.8461113
-41.322922 -11.65086 7.5824471
-41.229465 -11.42288 7.5642042
44.810398 -11.459987 7.9767933
44.858112 -10.608275 7.9146767
-16.054646 -3.3045337 7.9556665
-11.697667 -2.5980999 7.9775562
-10.014869 -2.0690279 7.5285511
-10.144104 -1.8224497 7.5497403
-31.982445 -1.4249866 7.956831
-16.509434 -0.63090372 7.9612474
-16.269457 -0.77422631 7.9128141
-22.647308 -0.43128133 7.9282045
-16.291035 -0.38734531 7.9080133
41.198246 -0.3105543 7.5906892
-43.407726 1.6365435 7.512742
-31.966347 3.4444535 7.9045105
-30.492945 4.40552 7.6902585
-30.44368 4.6477718 7.6835709
-30.703341 5.7750053 7.7260985
-21.697544 5.8552437 7.7412357
-30.911854 6.1150532 7.7585306
-29.588169 6.2956762 7.568512
-29.374802 6.4286013 7.538825
-20.68615 6.4771481 7.5695276
-30.100155 6.9840288 7.6490049
-29.254539 6.6483998 7.52352
-20.331348 6.7477784 7.5111041
-22.030354 7.4499626 7.8300285
-10.749394 7.8939056 7.7645941
-31.240204 11.385755 7.8903704
-30.24242 11.336967 7.7475548
-30.177336 11.569039 7.7442803
-29.796095 11.810948 7.6967335
-19.974125 11.831621 7.6177349
-29.599583 12.010252 7.6744251
34.226967 14.419996 7.5054674
34.93647 14.394111 7.6709919
36.201904 14.322407 7.9673896
-27.930561 16.283203 7.5940762
-27.321999 16.237818 7.5088949
-12.142613 18.443106 7.949264
-11.714366 18.432814 7.8701696
-11.280665 18.406466 7.7885766
-10.750644 18.382629 7.6903329
-10.24179 18.362991 7.5968857
-9.8332253 18.335409 7.5208344
-6.6863022 18.190636 7.9563713
-6.201323 18.170364 7.8574028
-5.856452 18.314913 7.8129029
-5.8189526 18.759392 7.8774137
-5.7911196 19.221413 7.948
-5.7875738 19.530901 7.9988251
-7.0016279 30.298279 7.5940905
-6.7846823 30.417048 7.5889874
-6.4537077 30.192183 7.521739
-25.802689 -24.115002 8.4116096
-12.100638 -24.269854 8.2291231
-11.996001 -24.349615 8.2272844
59.773838 -23.994289 8.2546902
58.722069 -23.092749 8.0667648
-26.527588 -22.618275 8.3644915
-26.757582 -22.268917 8.3624687
-27.004723 -21.747143 8.348175
0.65129852 -21.873009 8.4618053
-26.885277 -21.49041 8.3112793
-8.2443419 -20.682632 8.3924427
-7.8524866 -20.842911 8.3602409
-16.040592 -19.138145 8.1043406
-28.090286 -18.21381 8.2040424
-27.909176 -18.134882 8.1743927
-29.856211 -17.633392 8.3944235
-29.184946 -17.800764 8.3176079
-28.741684 -17.969219 8.2714014
-28.298279 -17.951094 8.211772
-30.522293 -17.453606 8.4702635
-30.230568 -17.146898 8.4101009
-29.992851 -17.415373 8.3971634
-30.010433 -16.872547 8.3618164
-29.72298 -16.573109 8.3029118
-31.338184 -16.216785 8.4960995
-30.580528 -16.188812 8.3921738
-30.330437 -16.363354 8.3701725
-29.764187 -16.409056 8.2972879
-45.162922 -15.783936 8.152668
-30.198997 -14.616986 8.2398319
-29.987762 -14.717551 8.2173576
-30.192028 -14.437614 8.227809
44.936634 -11.747348 8.0257864
45.208828 -11.37218 8.0457354
-12.482089 -5.7913218 8.3790455
38.867393 -5.0061855 8.1818886
38.912663 -4.9278297 8.1880293
39.485893 -4.9893608 8.3490181
-12.341525 -3.1844251 8.1699257
-13.531486 -2.6840103 8.4427557
-11.85343 -2.7629631 8.0250883
-13.8252 -1.8204612 8.4785414
-12.359195 -1.8343031 8.1089106
-13.605176 -0.011339903 8.3649893
-12.529141 -0.083018124 8.0934086
-23.140213 0.072151899 8.0086737
-48.879894 2.9868155 8.1052809
-49.045696 3.8702512 8.1193285
-25.113773 3.6040838 8.3409519
-23.841885 3.8020861 8.1111383
-25.697931 4.2663841 8.4487324
-23.871904 4.1485443 8.1178341
-12.49797 4.0372438 8.0661621
-23.698568 4.8078189 8.0905638
-13.034715 4.7221322 8.2147551
-12.949948 4.6633716 8.1919775
-23.91106 5.0258875 8.1307411
-25.022591 5.6852236 8.3379822
-24.910305 5.8133774 8.3192654
-18.076881 9.9353666 8.4359617
-32.538658 10.453577 8.0540285
-18.08699 10.053803 8.4438601
-12.464444 11.526642 8.4347401
42.270031 14.026159 8.3353539
-21.129559 15.946398 8.0425844
-21.067013 16.2759 8.0534534
-21.043262 16.77582 8.0826597
-21.025726 17.211861 8.1095762
-21.005447 17.505636 8.1267567
-20.984314 17.795816 8.1439781
-20.972858 18.167427 8.1690578
-13.178082 18.488098 8.1441355
-12.842617 18.482605 8.0818272
-12.491258 18.464115 8.0153275
-9.2419825 18.252525 8.4835386
-8.8050404 18.378485 8.4120102
-8.169775 18.28672 8.2688484
-7.6934891 18.231619 8.1641893
-7.183332 18.21158 8.0586348
-21.309746 18.553528 8.2524624
-14.268929 18.535431 8.3513365
-13.788596 18.522802 8.2607708
-13.431254 18.507401 8.1929712
-5.7773581 19.648439 8.0166254
-5.7435122 20.261747 8.1145182
-8.7993422 25.718851 8.387393
-8.7565489 26.184072 8.4543028
-5.2436647 27.424473 8.1772938
-6.5278997 27.74847 8.4004755
-6.2816062 27.808075 8.3782005
-5.7745094 27.721174 8.2971334
-5.2882724 27.858315 8.2586555
-4.5934286 28.170712 8.2270756
-5.316287 28.668705 8.4046278
-14.551312 -27.019159 8.9344444
-14.476411 -27.145836 8.9433022
-28.846783 -25.827335 8.939168
-29.040733 -25.125126 8.8984051
-28.544819 -25.438168 8.8665667
-27.239258 -25.435623 8.7084475
-15.092069 -25.015381 8.7218428
-29.056343 -24.821413 8.8728704
-15.130284 -24.678118 8.6806774
-28.591612 -24.131439 8.7538586
-15.039209 -24.141508 8.5954885
-29.629356 -23.413866 8.8199568
-28.826008 -23.354124 8.7144699
-28.255291 -23.227673 8.6324053
-8.0846434 -21.625956 8.5296984
-11.358811 -21.170536 8.9618254
-12.438567 -20.030409 8.9613075
-11.287701 -20.252899 8.8048992
-12.550775 -19.964512 8.9701481
-11.128891 -19.662918 8.6868715
-11.549373 -19.251627 8.6939259
-11.313745 -19.436968 8.6826792
-11.700024 -18.934612 8.6714191
-31.871788 -16.152023 8.563921
-31.957392 -15.812734 8.553793
-32.315487 -15.00789 8.5523539
-32.467514 -14.885688 8.5656996
-13.350038 -5.6010818 8.5777321
-13.286187 -5.2837381 8.5386581
-14.546779 -2.6274555 8.6955547
-14.398679 -1.5845406 8.6143093
-15.183597 -1.1422784 8.7974796
-14.797111 -1.3152282 8.7054234
-14.432878 -1.1772044 8.6084595
-26.144775 -0.76022315 8.5675869
-25.941536 -0.86260009 8.5328302
-14.53865 -0.77569389 8.6224604
-21.191505 -0.39244413 8.9725761
-15.128066 0.0088735819 8.7514486
-15.451797 0.57196379 8.8224564
-28.077812 1.2232751 8.8886728
-27.819012 2.2642257 8.8337746
-27.060738 3.1269372 8.6935301
-20.288944 4.2362838 8.7477493
-27.669653 4.8490019 8.808321
-19.630653 4.6034145 8.6086178
-37.63018 6.0477762 8.7308493
-19.545963 6.3394804 8.6206207
-20.04002 6.9097786 8.7410774
-19.456591 6.6342502 8.60853
-27.162209 7.2332296 8.7455282
-20.072498 7.0328293 8.7513542
-26.31213 7.9954052 8.6080313
-37.181889 9.3054352 8.6987982
-36.739567 9.0469332 8.6314154
-13.753016 10.127981 8.6390944
-11.568358 18.411221 8.9931345
-11.242373 18.394621 8.9218063
-10.716151 18.370413 8.8075151
-10.217955 18.35614 8.7010717
-9.8264856 18.342926 8.6176014
-16.20348 18.740881 8.7355547
-8.7418947 26.685755 8.5319586
-8.7019644 27.173849 8.6046448
-8.6795015 27.600163 8.6705685
-7.2190142 28.405823 8.6041155
-5.9397383 29.296549 8.5931692
-0.5111618 -24.192873 9.1598883
-0.49742794 -23.976606 9.106514
-9.3670092 -23.443079 9.035368
-12.601956 -22.083584 9.3081789
-33.642574 -21.179329 9.1526451
-12.260587 -21.307711 9.1297359
-11.857982 -21.279982 9.0599051
-14.255806 -19.643181 9.2136803
-13.716103 -19.7834 9.1411123
-13.386703 -19.926626 9.1059551
-8.6231213 -19.631498 9.4456902
-15.348804 -19.251322 9.3491802
-13.697951 -19.469166 9.0919638
-9.1633034 -19.298935 9.4845352
-21.350395 -0.5715282 9.0109615
-22.179314 3.7997394 9.1548996
-21.670038 4.3422942 9.0481386
-16.911491 4.8832998 9.1982737
-21.109604 15.950097 9.4425001
-20.956699 16.469606 9.4527626
-20.941372 16.7512 9.4725409
-20.932598 17.046732 9.495121
-13.263102 18.486725 9.3660965
-12.80406 18.472765 9.2653685
-12.222411 18.440863 9.1364822
-11.787642 18.427931 9.041995
-17.736641 18.850485 9.0374441
-13.625798 18.504181 9.4467907
-5.6944561 27.351162 9.4360332
-5.2813787 27.472645 9.3978062
-5.3585491 27.576927 9.4306602
-12.154319 -24.095881 9.5670443
-9.9618483 -20.842829 9.9219923
-10.726991 -20.276947 9.9604788
-11.083077 -19.890291 9.9584942
-10.903405 -19.969021 9.938117
-10.345914 -19.651669 9.7737856
-9.1870718 -19.541059 9.5338516
-28.746605 -18.120977 9.9986544
-28.764912 -17.855732 9.9783058
-19.11289 -1.139953 9.7935467
-19.041889 -0.78281742 9.7652798
-32.83876 -0.47422385 9.7744646
-24.013287 1.0034205 9.5632515
-19.644657 1.8077071 9.8744287
-32.757401 2.5943379 9.7273808
-20.040833 2.6593616 9.9721775
-33.302216 3.0168943 9.8246517
-21.494907 15.965465 9.5211945
-20.913971 17.329893 9.5152273
-20.882223 17.768009 9.546525
-20.862509 18.13464 9.5748081
-21.365234 18.906822 9.7425423
-20.895557 18.529024 9.6165962
-15.810394 18.604458 9.9370871
-15.26901 18.574528 9.8142338
-14.754922 18.556026 9.6992245
-14.264309 18.543949 9.5905962
-13.868154 18.513832 9.5005932
-8.6076212 27.440382 9.9192848
-6.7322311 27.443031 9.6157827
-6.2994795 27.477364 9.5547037
-8.5873766 27.599434 9.9461908
-7.3124342 27.675583 9.7535648
-6.6276979 27.685133 9.647212
-6.3678761 27.835846 9.6368322
-5.7513037 27.701475 9.5152702
-5.3539605 28.137823 9.5443163
-5.2772756 28.618101 9.6317635
-4.9706097 28.691608 9.6024208
-5.6056623 29.861851 9.9373312
-5.4411573 29.850876 9.9115458
-12.51048 32.168762 9.9560699
-12.04618 32.482986 9.9431591
-12.300132 32.567886 9.9923458
-11.833961 32.67741 9.9463434
-11.748624 33.02515 9.9928589
-25.453709 -24.053482 10.077566
-27.519764 -23.758568 10.359704
-26.121788 -23.507027 10.118065
-25.406187 -23.72892 10.033899
-26.205099 -23.254139 10.103104
-25.653469 -23.404745 10.035362
-25.483421 -23.4844 10.018319
-26.622528 -22.535522 10.090014
-26.301052 -22.632313 10.0506
-27.772541 -21.539791 10.166531
-10.707747 -21.116287 10.112055
-12.973243 -20.731133 10.47526
-12.800035 -20.434366 10.389072
-28.64291 -19.169365 10.076514
-28.759682 -18.309986 10.017599
-29.34837 -17.738625 10.06424
-29.821106 -17.309839 10.105885
-21.332762 0.12817615 10.326091
-27.395092 3.7473063 10.287634
-36.025566 6.2891617 10.328969
45.713898 13.887422 10.341354
45.757732 14.087332 10.371069
45.289833 15.208838 10.357235
-17.06583 18.652611 10.221088
-16.77766 18.639675 10.155467
-16.348492 18.624901 10.058508
-13.080075 33.132 10.19383
-11.646708 33.232861 10.014039
-12.064082 34.070309 10.211561
-17.299406 -27.228865 10.889317
-17.075989 -26.530987 10.740622
-16.373257 -26.69385 10.655452
-17.232834 -26.471367 10.756146
-46.777699 -19.384449 10.793614
-23.247669 -1.7354944 10.860266
-23.56451 -0.16064417 10.899232
-22.87273 -0.26097929 10.725535
-23.872967 0.49918759 10.965496
-23.638168 0.76866388 10.901711
-28.686714 3.6625609 10.568074
-30.262508 7.2086763 10.950078
-20.813629 17.375725 10.933838
-20.774036 18.036728 10.992064
-24.285343 23.051224 10.705575
-15.075661 -22.6768 11.22983
-16.566956 -22.135584 11.43018
-24.371449 1.1603768 11.083188
-24.59656 1.8433795 11.134266
-24.476124 2.1226745 11.101914
-42.094158 3.8882935 11.416215
-20.772812 18.186634 11.007416
-12.136397 31.761698 11.327043
-11.888749 32.749306 11.477366
-16.823454 -22.681644 11.574826
-16.469067 -22.661867 11.500971
-17.283075 -22.241907 11.592152
-17.366148 -21.874306 11.547356
-33.424248 1.2127433 11.608664
-27.69413 5.5656815 11.939958
-24.539677 16.088655 11.690432
-12.52502 32.401989 11.513595
-12.514859 32.607357 11.55138
-12.905244 33.373405 11.762762
-12.862975 33.661217 11.811666
-29.497478 0.95401645 12.389922
-27.923758 5.8123512 12.00233
-40.69759 2.8382082 15.226208
-40.501202 3.1127501 15.1757
57.68335 -5.54567 -2.1214221
57.799408 -5.2717628 -2.1296923
57.921688 -4.8510036 -2.138406
58.075512 -4.5804009 -2.1499991
57.773178 -4.2441497 -2.1265955
58.063217 -4.2849879 -2.1489906
58.669014 -4.080184 -2.1957917
61.210789 -3.790966 -2.3926511
60.965496 -3.1379042 -2.3752244
61.053642 -3.3814025 -2.3813767
60.981327 -2.9839053 -2.3769426
61.123627 -2.8423443 -2.388474
61.039261 -2.3673863 -2.3838725
60.690285 -1.7284321 -2.3600476
58.445427 2.4212294 -2.2260132
59.133823 2.2072904 -2.2767193
55.563309 2.8317628 -2.0073211
57.54879 2.7570267 -2.1609674
58.605412 2.6433644 -2.2416668
80.502472 21.587528 -2.1087916
27.407799 -34.811722 -1.7340114
27.928543 -34.507984 -1.7204034
28.210239 -34.304626 -1.7106237
28.619822 -34.080368 -1.7018665
28.902296 -33.902805 -1.6944978
29.201073 -33.755806 -1.6898584
29.831314 -33.593822 -1.6912229
27.156805 -32.846714 -1.5893055
33.782082 -32.053757 -1.6872668
34.380245 -32.208904 -1.7156544
34.803955 -32.310291 -1.7355305
35.390823 -32.133438 -1.7429466
28.81179 -31.566755 -1.5284288
33.911572 -31.889555 -1.6803658
34.115768 -31.999956 -1.6938362
32.861904 -30.64974 -1.5672336
40.378994 -30.253025 -1.8163126
40.502171 -30.066694 -1.8107853
40.633801 -29.785423 -1.8002859
40.714455 -29.351891 -1.7790103
43.279816 -24.573488 -1.6487939
43.384655 -24.228916 -1.6375141
43.6078 -23.736929 -1.6257722
43.804108 -23.173328 -1.6098175
43.932335 -22.837877 -1.6012745
44.0709 -22.623253 -1.5991266
44.257477 -22.236898 -1.5921099
44.462727 -21.922415 -1.5897061
44.58551 -21.65064 -1.5847831
44.735714 -21.246937 -1.5759547
44.895683 -20.865355 -1.5690361
45.04734 -20.596464 -1.5666821
45.151432 -20.290285 -1.5602169
45.365253 -19.750095 -1.5511786
45.725937 -19.245195 -1.5533055
45.921101 -18.778595 -1.5474764
46.035519 -18.562006 -1.5464666
46.27364 -18.275164 -1.5508797
35.58625 -13.503373 -1.5548341
35.243107 -13.440028 -1.5212187
35.730015 -13.403149 -1.5608686
36.175434 -13.270108 -1.5914725
36.214996 -12.825555 -1.5676037
36.719566 -12.776177 -1.6099405
37.136967 -12.756852 -1.6465802
39.785683 -3.2791495 -1.5697269
40.214989 -3.2837243 -1.6172998
40.745232 -3.1776609 -1.6748297
40.680523 -2.7351837 -1.6631126
40.550034 -2.2499833 -1.6446161
40.460278 -1.647838 -1.6312485
40.506397 -1.9050884 -1.637607
40.386509 -1.2619547 -1.6218357
40.223618 -0.75011712 -1.6030899
39.998367 -0.037330508 -1.5792444
40.106037 -0.29041654 -1.5905654
39.982498 0.25309643 -1.5789182
40.005085 0.20564723 -1.5811524
39.950726 0.72857147 -1.5785812
39.927311 1.2534773 -1.5809423
39.873806 1.7731714 -1.5812489
39.801117 2.2532799 -1.5802002
39.716656 2.6871705 -1.578182
54.70557 2.9349399 -1.9420509
39.590725 3.3545306 -1.5775421
53.365852 3.267863 -1.8429723
53.642139 3.4098372 -1.866842
54.332832 3.1174223 -1.9158778
39.353348 3.5728183 -1.5557361
53.225067 3.5157285 -1.8361487
75.879532 19.689631 -1.868521
77.11972 20.290325 -1.9354985
75.740761 20.539801 -1.8866305
22.530754 -57.091263 -1.287287
35.910172 -53.561939 -1.1726549
35.242714 -51.043171 -1.0734074
53.316109 -50.133186 -1.3092065
35.179691 -49.763489 -1.0252448
35.554317 -49.662151 -1.0246139
36.784019 -49.676102 -1.0362918
37.131916 -49.773399 -1.04324
36.257732 -49.399273 -1.0211649
42.760628 -47.12711 -1.0202351
43.204132 -47.137863 -1.0274352
43.76123 -47.14743 -1.0365094
51.679649 -45.006641 -1.1192431
51.885948 -44.926498 -1.1214089
24.679207 -30.096498 -1.3568749
24.738628 -29.867811 -1.3409572
22.420582 -29.073414 -1.2615864
22.542587 -29.136101 -1.2669969
23.37019 -29.133495 -1.2731667
23.706661 -29.123173 -1.2755214
24.182541 -29.00643 -1.2719243
23.154097 -28.873301 -1.2522111
24.036646 -28.889521 -1.2618182
21.27985 -28.017931 -1.1777606
21.701101 -28.012106 -1.1790869
22.223459 -28.188339 -1.1950328
22.813749 -28.279171 -1.205795
23.750877 -28.356174 -1.219903
24.465076 -28.130238 -1.2115459
24.789764 -28.193192 -1.220271
25.170574 -28.494835 -1.247189
20.335087 -27.578236 -1.142845
20.737894 -27.634048 -1.1476655
21.093189 -27.819662 -1.162401
21.655142 -27.744568 -1.1590557
22.838352 -27.871241 -1.1759923
23.200678 -27.594816 -1.1588414
24.80467 -27.974657 -1.2046499
19.836327 -27.211386 -1.1152738
20.472309 -27.44084 -1.1327567
20.785835 -27.480261 -1.1362936
21.345037 -27.457058 -1.1363547
21.802174 -27.40045 -1.1342969
22.428062 -27.403757 -1.1384628
19.930351 -26.215696 -1.0408063
20.02861 -26.260767 -1.0442138
23.413818 -25.408127 -1.0013454
30.671917 -23.791945 -1.0511355
30.353271 -23.415817 -1.016515
30.568695 -23.192762 -1.0091681
35.839066 -19.66086 -1.0186603
42.450596 -15.706608 -1.2155232
28.834572 -14.50177 -1.1142631
29.250633 -14.534634 -1.1440665
31.458694 -14.836708 -1.3214092
31.693918 -14.754904 -1.3321266
27.233917 -14.407298 -1.0083836
27.645733 -14.422219 -1.033813
28.413494 -14.459047 -1.0838953
28.751196 -14.45534 -1.1049845
29.055798 -14.446309 -1.1238179
31.844494 -14.134498 -1.2953267
31.84713 -13.873552 -1.2757347
32.22897 -13.670676 -1.2900454
32.650997 -13.556108 -1.3148012
33.412361 -13.547935 -1.3754029
32.870766 -13.450333 -1.3247362
33.268742 -13.342035 -1.3493061
33.654278 -13.235201 -1.3735979
34.27198 -13.247744 -1.4260242
34.802486 -13.229403 -1.4697857
73.04422 -11.652109 -1.3022647
73.107269 -11.459905 -1.3049431
74.622467 -10.330631 -1.3693504
27.700256 -7.7019753 -1.0067927
27.933401 -7.3751626 -1.0041754
28.178078 -7.0335989 -1.0035059
28.204254 -6.9589381 -1.0004094
26.638115 -5.1004958 -1.0900133
26.434883 -4.7725582 -1.0279715
43.468727 -4.5346856 -1.031436
43.622524 -4.7613297 -1.0447859
44.147465 -4.5886383 -1.083302
43.690742 -4.2388763 -1.046352
44.246426 -4.0553908 -1.0876147
49.406437 -4.2824001 -1.4830768
43.394539 -3.6971359 -1.0208499
44.576107 -3.6754704 -1.1110771
34.968918 -3.2048159 -1.03859
35.353493 -3.2014542 -1.080587
35.879429 -3.1958001 -1.1380976
36.893208 -3.3001585 -1.2511008
37.437328 -3.2787945 -1.3105808
38.297199 -3.2828491 -1.4053696
38.70266 -3.2125068 -1.4491191
39.135033 -3.2245593 -1.4970598
32.996223 -2.5114818 -1.4018278
32.861401 -2.2159109 -1.3751589
32.845459 -1.7447481 -1.3627961
28.741388 -1.2139404 -1.1943586
32.828896 -1.2526295 -1.3520929
24.632837 -0.73750609 -1.0388879
26.284096 -0.67025161 -1.0886939
28.718996 -0.75576913 -1.1778022
32.768387 -0.73251653 -1.3368938
24.689842 -0.25941265 -1.0275204
26.275614 -0.25757077 -1.0727706
28.645384 -0.25725329 -1.1544256
32.678947 -0.24340886 -1.320071
24.694418 0.24931186 -1.0094295
26.234842 0.25256822 -1.0516845
28.483978 0.46671492 -1.1170202
28.540783 0.21413651 -1.1292983
32.578339 0.2368926 -1.3038896
24.693703 0.57638866 -1.001021
26.179277 0.75313753 -1.0334715
28.412941 0.75556093 -1.1033822
32.531128 0.73309463 -1.2979059
26.116896 1.2435861 -1.0196998
28.344666 1.240766 -1.092672
32.481823 1.3350518 -1.295087
32.515472 1.0625163 -1.2975286
26.075518 1.7431806 -1.0166866
28.311306 1.7406338 -1.0926143
32.420731 1.7688371 -1.2915862
25.972261 2.3784106 -1.0104876
26.025543 2.1265941 -1.0143553
28.251812 2.2572877 -1.0923655
32.333981 2.2540658 -1.2871634
25.873993 2.7518685 -1.0037668
28.166389 2.7480934 -1.0910376
32.207283 2.7571247 -1.2797251
35.775166 2.8197005 -1.1353256
25.750921 3.2487178 -1.0019934
27.994072 3.4611187 -1.0877295
28.060247 3.2132158 -1.0890921
32.095352 3.2581253 -1.2770454
25.602823 3.7716136 -1.0032825
27.945248 3.7341018 -1.0922345
31.341305 3.9964566 -1.1915932
31.837055 3.8660839 -1.2594041
32.032124 3.5985699 -1.2785807
34.68642 3.9008458 -1.0393037
36.45623 3.9666343 -1.2397466
37.352291 3.8602169 -1.3376005
37.703526 3.6796508 -1.3724647
38.189522 3.654726 -1.426569
38.699333 3.6287203 -1.4833608
25.451969 4.3416991 -1.0153239
25.52021 4.0997176 -1.0098858
27.882952 4.2462697 -1.1091326
30.994806 4.2410374 -1.1508925
31.084312 4.2310796 -1.1636603
25.286665 4.7523994 -1.0181545
27.782021 4.7538686 -1.1233749
30.988586 4.8617396 -1.1782956
31.042904 4.6867929 -1.177882
24.908974 5.3910422 -1.0078901
25.081318 5.1434093 -1.0153596
27.65136 5.2550259 -1.1364688
31.07922 5.2480488 -1.211017
24.722263 5.6497812 -1.0013554
27.44672 5.8379135 -1.1482904
27.541824 5.5988221 -1.144484
30.99029 5.9176097 -1.2357256
31.159286 5.728363 -1.2487719
27.260113 6.2563386 -1.1543778
31.303963 6.2659478 -1.3012141
26.841784 6.8245482 -1.1412343
27.038179 6.5681067 -1.1472123
30.596207 6.8713131 -1.2422478
31.192974 6.7633586 -1.3177161
64.433189 6.8888426 -1.0938327
25.905922 7.4607768 -1.0643358
26.2533 7.3402901 -1.104061
26.615416 7.106215 -1.1346999
29.762045 7.3948593 -1.1672443
30.251083 7.3384442 -1.2289528
30.814993 7.2384396 -1.2985251
33.835358 7.1976032 -1.0774405
64.445915 7.227107 -1.1005367
25.442204 7.5725327 -1.0078552
25.749821 7.55828 -1.0523925
28.362522 7.7371755 -1.0103564
28.725189 7.7193885 -1.0561057
29.298492 7.6618767 -1.126758
29.54291 7.5410357 -1.1493822
34.784477 7.584259 -1.1987147
64.465271 7.8966761 -1.1139175
64.508293 8.3264284 -1.1240619
41.009258 8.5826759 -1.028923
64.514816 8.7609158 -1.1329334
64.540642 9.0119896 -1.1390843
39.43721 10.964154 -1.0126653
64.646347 10.826628 -1.1820769
38.75502 11.960277 -1.0123539
39.395103 11.831045 -1.050684
38.624672 12.128936 -1.0117939
39.058174 12.009595 -1.0358927
38.180099 12.706822 -1.0111418
64.834618 13.937804 -1.2637763
63.370453 17.447767 -1.299638
35.464088 -48.843525 -0.99351907
35.681278 -48.916271 -0.99812508
29.760309 -48.414948 -0.94156694
37.228397 -48.247566 -0.98860133
37.566704 -48.071033 -0.98577023
13.393194 -47.626137 -0.98433399
37.421188 -46.774372 -0.93733549
37.626499 -46.568657 -0.93224025
40.144218 -46.55727 -0.96305895
37.868519 -46.472042 -0.93154705
38.261147 -46.453918 -0.93552989
38.802338 -46.315475 -0.93719721
39.281788 -46.255886 -0.94114292
39.674778 -46.224316 -0.94514573
40.297714 -46.446922 -0.96127415
41.26717 -46.29715 -0.96964622
35.363583 -44.602524 -0.83673859
39.574577 -44.562 -0.88564301
40.625069 -44.663277 -0.90402412
39.801029 -44.413666 -0.88363039
40.824715 -44.429008 -0.89890987
41.109436 -44.396832 -0.90205741
42.221184 -43.805069 -0.8993721
39.607315 -43.437214 -0.84705091
28.305819 -41.59383 -0.67308033
25.698994 -40.469887 -0.62232447
27.296936 -40.087666 -0.61125457
21.883011 -39.994743 -0.60672331
27.259861 -39.957115 -0.60606897
27.62929 -39.602142 -0.59369779
24.241852 -38.757454 -0.55403906
52.844601 -30.183922 -0.75652385
52.748783 -29.56724 -0.739887
50.825451 -27.696617 -0.64044166
50.442944 -27.144526 -0.61672348
50.557957 -27.039959 -0.61795342
19.303368 -24.295572 -0.8974185
19.079819 -23.799416 -0.86056668
25.892735 -23.789783 -0.92436266
26.14344 -23.915371 -0.93825614
17.916563 -22.510277 -0.76793242
18.005625 -22.61393 -0.77524889
30.753935 -22.72484 -0.98552573
31.155842 -22.550854 -0.98840117
17.321995 -22.145992 -0.74445331
17.701197 -22.354679 -0.75751257
31.691593 -22.395298 -0.9979589
14.660794 -21.54673 -0.73293245
15.305117 -21.55862 -0.72325712
15.744924 -21.60869 -0.72070271
16.225914 -21.652985 -0.71795177
16.722513 -21.814476 -0.72476071
17.076418 -21.980925 -0.73398876
53.866432 -21.741314 -0.62702107
54.14735 -21.547186 -0.63384342
27.870428 -21.134228 -0.79094487
28.014301 -21.128084 -0.79471755
25.492435 -20.81823 -0.70860463
25.772184 -20.610819 -0.7006647
26.100538 -20.529369 -0.70288354
27.200289 -20.535538 -0.73204947
27.6427 -20.965309 -0.77317619
25.116135 -20.409788 -0.67201442
26.335514 -20.450085 -0.70332778
26.733677 -20.431473 -0.71239221
30.464554 -19.609261 -0.7802552
30.478271 -19.469616 -0.77223086
30.740231 -19.226776 -0.76767355
31.206182 -19.059444 -0.77622092
31.754822 -19.147398 -0.80401617
32.119019 -19.346256 -0.83094275
35.633194 -19.212503 -0.98489761
31.434414 -18.999327 -0.78198791
35.840935 -18.170666 -0.9415288
36.330822 -18.220156 -0.96937138
36.536747 -18.061331 -0.9722023
18.28371 -14.735666 -0.75722635
18.527435 -14.663315 -0.74980748
19.258289 -14.779284 -0.76694876
19.723188 -14.750443 -0.76863623
20.241375 -14.589388 -0.75844914
20.730085 -14.538949 -0.76165444
21.076521 -14.509379 -0.76565117
23.406961 -14.509419 -0.83491296
23.733799 -14.508306 -0.84736264
24.784704 -14.513825 -0.892106
25.200432 -14.527374 -0.91268039
25.923786 -14.506182 -0.9461717
20.804144 -14.478822 -0.75680953
21.325974 -14.431936 -0.76319188
21.750015 -14.345469 -0.76484942
22.272335 -14.44197 -0.78983128
22.769533 -14.437176 -0.80512637
23.127228 -14.374395 -0.81101418
23.756094 -14.455182 -0.8428399
24.224766 -14.418236 -0.8582744
24.519028 -14.4659 -0.87557054
25.247139 -14.454911 -0.90783691
25.640289 -14.457309 -0.92725629
26.139166 -14.429151 -0.9500953
26.55522 -14.437799 -0.97309852
16.326569 -13.090799 -0.58716959
16.791311 -13.144317 -0.5876447
17.144106 -13.315747 -0.60354251
15.298714 -12.622481 -0.5541833
15.757132 -12.737167 -0.55733424
16.207144 -12.909055 -0.56870753
17.373034 -12.626223 -0.52603459
14.09554 -12.141802 -0.53553069
14.993055 -12.367819 -0.53358483
15.085462 -12.415831 -0.53651857
21.847507 -10.697655 -0.85934484
22.235622 -10.727912 -0.88385296
22.760868 -10.746125 -0.91616249
23.277168 -10.761019 -0.94995952
23.736752 -10.743473 -0.97812629
18.669897 -9.5963955 -0.59590793
19.128469 -9.5086632 -0.59233212
20.988787 -9.5880919 -0.66800129
21.128317 -9.5370665 -0.66767913
16.240477 -9.2064295 -0.5406388
18.023495 -9.4413328 -0.56571269
18.738504 -9.3254261 -0.55825996
19.291458 -9.3256741 -0.57037997
19.760418 -9.3751593 -0.59077877
20.276371 -9.3200464 -0.60124463
20.754223 -9.3815432 -0.62932968
21.079792 -9.4856596 -0.65837181
14.961959 -8.7586222 -0.51150924
15.678313 -8.8730631 -0.50482279
20.367197 -8.5627565 -0.50043416
24.891422 -8.9387693 -0.85182977
26.174749 -8.8083277 -0.95582676
61.168633 -8.5450878 -0.80922949
20.314684 -8.1331568 -0.80704349
20.728729 -8.1575174 -0.8360278
25.745316 -8.1739321 -0.84772897
26.212427 -8.2988615 -0.90681309
26.791752 -8.2419281 -0.96012831
27.004898 -8.0453033 -0.96319294
61.221172 -8.4023943 -0.8115108
19.920586 -7.8497996 -0.73724532
20.048166 -7.9589291 -0.76264316
22.606256 -7.7042603 -0.52132285
26.306709 -7.7639623 -0.86273634
26.99227 -7.7702947 -0.93566918
27.214849 -7.7805195 -0.96076012
27.600937 -7.6670642 -0.99261218
18.889849 -7.2076478 -0.58048087
19.100067 -7.152967 -0.57869935
19.695513 -7.3776112 -0.64452684
20.595745 -7.0544209 -0.64338756
27.015289 -7.3423543 -0.89839959
27.785673 -7.2725124 -0.97857434
28.055368 -7.0350976 -0.98931313
15.301015 -6.751049 -0.51229787
15.641538 -6.8335757 -0.51304591
19.286674 -6.8020248 -0.52546018
20.452938 -6.7787414 -0.58802968
20.758963 -6.6793456 -0.59377414
21.088871 -6.5673385 -0.60120833
27.345314 -6.5557446 -0.86665034
27.932199 -6.5803485 -0.93747652
28.265203 -6.7521977 -0.99086827
14.153864 -6.3371358 -0.50676763
17.293049 -6.1601276 -0.64039624
17.614866 -6.1635089 -0.64406836
19.391422 -6.2855735 -0.73903465
19.748404 -6.3448586 -0.77522659
20.103649 -6.2539334 -0.78344226
21.213741 -6.41043 -0.58673328
21.543039 -6.2414989 -0.58934844
22.625433 -6.1025 -0.67700064
23.464991 -6.0062437 -0.75917399
28.305189 -6.343461 -0.96350527
14.836576 -5.5199218 -0.58494592
15.392311 -5.7646632 -0.60163194
15.533176 -5.8771324 -0.61836201
20.061659 -5.6672573 -0.66329688
23.445316 -5.9315801 -0.74690688
23.722879 -5.8313913 -0.7677213
24.188368 -5.5760112 -0.79462576
14.792113 -5.1937699 -0.52047735
15.13291 -5.3630605 -0.53174484
15.918132 -5.0538421 -0.66812277
16.202602 -5.0550189 -0.65679622
16.795961 -5.2364869 -0.68937767
18.937988 -5.3084993 -0.50921631
19.256899 -5.1439667 -0.74229044
19.66173 -5.0718722 -0.77608424
20.258972 -5.2421637 -0.59832579
20.635153 -5.0784087 -0.60481864
21.063393 -5.03795 -0.64452887
23.361534 -5.1759834 -0.63873577
24.358351 -5.4333496 -0.7998026
24.713144 -5.2431297 -0.82583147
25.230753 -5.0972667 -0.8822422
25.625948 -5.0156555 -0.93075204
42.49073 -5.0611939 -0.96193087
15.727496 -4.5962944 -0.56278431
19.792072 -4.71346 -0.70627922
20.777828 -4.9145336 -0.58981025
21.189341 -4.7613993 -0.61024773
21.580837 -4.7969589 -0.66540444
22.208727 -4.5297813 -0.70692825
24.77446 -4.971312 -0.80364251
25.36286 -4.9654613 -0.88721675
25.696905 -4.7855768 -0.9179498
26.204275 -4.7016726 -0.74358058
26.814907 -4.995719 -0.67967463
39.931259 -4.8022575 -0.76712078
40.109196 -4.6258121 -0.77862257
60.62677 -4.8781796 -0.79579043
15.489181 -4.3317003 -0.51181227
15.713016 -4.4060736 -0.5163421
18.790836 -4.3886366 -0.53898799
19.884268 -4.2957239 -0.6219486
20.19504 -4.0792122 -0.61220163
20.595615 -4.0506797 -0.65969855
22.317099 -4.2681766 -0.68185586
22.73481 -4.1680489 -0.73057389
25.936787 -4.3017874 -0.71542448
26.138498 -4.1981363 -0.57129079
20.314327 -3.9649282 -0.60313594
20.72962 -3.858428 -0.63942283
22.894608 -3.8394294 -0.70893097
23.101435 -3.652396 -0.71758878
23.537189 -3.5192924 -0.77504134
26.147369 -3.8345406 -0.51429254
38.484398 -3.8768501 -0.64921653
38.589008 -3.7432327 -0.6559515
20.730881 -3.2263436 -0.51448476
21.356644 -3.4440975 -0.65889424
21.773434 -3.2525485 -0.69884992
22.240261 -3.0877585 -0.75909227
22.520887 -3.0250955 -0.80428827
23.247744 -3.4467475 -0.71560836
23.747168 -3.3462672 -0.79117686
24.001245 -3.2328963 -0.82363117
34.146423 -3.1201167 -0.94718933
34.504555 -3.1499286 -0.98683906
22.44426 -2.8837852 -0.76746601
22.692127 -2.7725394 -0.8015765
23.075548 -2.7149155 -0.87337887
22.410997 -2.1258833 -0.65203285
22.512791 -2.2489748 -0.69030535
22.219095 -1.6579071 -0.55052567
22.237621 -1.2972872 -0.51265234
22.410551 -0.86152971 -0.50849366
22.696959 -0.69769162 -0.56285572
23.226799 -0.64446431 -0.68689138
23.619888 -0.6637851 -0.65240616
24.039217 -0.6878835 -0.61071038
24.724161 -0.70479083 -0.75657761
25.435928 -0.79172623 -0.91223162
25.764505 -0.7450428 -0.77811557
24.683361 0.79971075 -0.99522954
24.632847 1.2450504 -0.98061246
61.151649 1.4086473 -0.87042809
24.582605 1.7456882 -0.97384584
24.48801 2.4396205 -0.97205305
24.530279 2.1875353 -0.97282749
24.407476 2.7521904 -0.96764994
24.265194 3.2534378 -0.96430004
25.755163 3.1986105 -0.99981594
58.91011 3.3204343 -0.79939944
23.985907 3.9851828 -0.95856965
24.097418 3.7438319 -0.96309179
25.653172 3.5635743 -0.99980474
31.793846 3.9415252 -0.71679479
32.468941 3.9670763 -0.79300666
33.28981 3.9223456 -0.88344514
33.516953 3.8931198 -0.90800548
34.265209 3.9376307 -0.99314213
36.457394 3.96911 -0.54243588
36.6577 3.8922009 -0.55617505
37.226059 3.7796879 -0.59767991
37.843079 3.7001863 -0.64377475
38.443794 3.6863914 -0.69006503
38.961319 3.660368 -0.72967005
39.405479 3.6238933 -0.76338983
40.272308 3.5808423 -0.82982624
41.489037 3.5582519 -0.9238919
58.799816 3.7524848 -0.80102098
23.872652 4.2521152 -0.95971978
31.199766 4.3619075 -0.6650123
31.658806 4.1328006 -0.70803767
33.174248 4.0220861 -0.87355661
36.229923 4.2505412 -0.53157878
36.549492 4.0505409 -0.55144548
11.430241 4.692492 -0.50617385
11.5256 4.8645272 -0.50919014
12.32142 4.7230587 -0.53539455
12.587601 4.905808 -0.50747979
23.463125 4.9417653 -0.94818234
23.632435 4.6901312 -0.95449638
30.959398 4.597753 -0.6471855
31.072117 4.8092418 -0.66797912
35.712925 4.7285829 -0.50410444
36.355209 4.6517577 -0.55132973
36.654617 4.5580215 -0.57194912
59.052643 4.7945614 -0.82807469
11.831486 5.2370443 -0.50189751
12.809301 5.17834 -0.51156956
13.093235 5.4300642 -0.50441325
23.216299 5.2634664 -0.93904704
30.946503 5.2474885 -0.67249388
31.061462 5.1223006 -0.6796419
59.247372 5.2568684 -0.84403944
12.40788 5.8921194 -0.50210845
13.264802 5.6072679 -0.50927913
22.953878 5.5702529 -0.92885655
24.461636 5.9778738 -0.9919548
24.580509 5.8429899 -0.99757791
30.920523 5.7940164 -0.69480538
31.111458 5.7039223 -0.71111816
35.434227 5.9871297 -0.52025282
35.559586 5.9515982 -0.52857614
59.300781 5.7847328 -0.85532826
12.665967 6.1836596 -0.51149976
13.905496 6.1652827 -0.52810889
14.050518 6.2789693 -0.53395516
24.251303 6.2275567 -0.98608547
30.972469 6.464931 -0.73405981
31.117893 6.0694304 -0.72935426
31.761642 6.3319321 -0.81153858
35.185108 6.195879 -0.50839889
54.831635 6.340044 -0.67486608
59.703011 6.1278362 -0.87851512
13.385852 6.8104191 -0.52648503
13.555638 6.9141655 -0.52554131
14.491734 6.607388 -0.55758917
14.749502 6.7544622 -0.56670296
15.113718 6.9353237 -0.57799834
19.733288 6.9027438 -0.64971185
30.887428 6.7947989 -0.74297619
31.28059 6.6833491 -0.77841091
31.710602 6.6343594 -0.82153809
35.286777 6.7259736 -0.53455549
36.292164 6.7283173 -0.60988158
36.502235 6.9727178 -0.63422382
14.326723 7.3444138 -0.5307579
14.523557 7.4805074 -0.54232502
15.360312 7.0510917 -0.58849919
15.740265 7.1951437 -0.60207838
16.24295 7.330092 -0.61528826
16.699469 7.4554648 -0.63841736
17.511543 7.4777637 -0.64655674
19.258425 7.349791 -0.7138707
19.602415 7.1220107 -0.66915083
30.868118 7.2070184 -0.76443893
33.071083 7.2625179 -0.99938893
14.773446 7.610033 -0.55044842
15.248814 7.8368049 -0.56826252
15.606956 7.978878 -0.5806675
16.949076 7.5056748 -0.64974308
17.245569 7.5439906 -0.6616255
17.769781 7.5607381 -0.67679244
18.256302 7.576787 -0.70158279
18.754942 7.5352583 -0.72115445
19.033762 7.5008459 -0.73316669
19.748568 7.9029856 -0.6427055
24.882538 7.6101599 -0.93019879
25.18508 7.5905728 -0.97200668
26.338688 7.9127192 -0.77175105
26.724758 7.8034353 -0.80838287
27.254253 7.7875433 -0.87310642
27.765703 7.7648716 -0.93595862
28.138901 7.744988 -0.98210496
30.807737 7.7288876 -0.78964031
31.25642 7.5702705 -0.82620353
13.857935 8.2319536 -0.50814062
14.160018 8.3908596 -0.51332158
15.797009 8.0587387 -0.59068853
16.239363 8.2004967 -0.60840791
16.741756 8.3332615 -0.63004184
17.246647 8.4239607 -0.65007573
17.74781 8.4468145 -0.66187847
18.257454 8.4737663 -0.68307424
18.742718 8.4742165 -0.70463598
19.23163 8.3311644 -0.70035064
19.663141 8.1859083 -0.69909221
20.049971 8.1112061 -0.71545947
20.632786 8.043499 -0.75863457
23.80546 8.2561741 -0.52151805
24.257502 8.2320805 -0.56661195
24.74412 8.2082739 -0.61718237
25.23727 8.1858368 -0.67035347
25.756107 8.152297 -0.72690266
26.103962 8.0654068 -0.75897527
27.436409 8.4698038 -0.5099408
27.75145 8.3787022 -0.53237331
28.272125 8.3228741 -0.57767016
28.746155 8.3006973 -0.62180406
29.227688 8.2908688 -0.66813767
29.724743 8.2726851 -0.71592999
30.244247 8.2483196 -0.7660681
30.773006 8.1888475 -0.81540072
31.126858 8.2332134 -0.8541137
39.783371 8.4062262 -0.93119353
40.290359 8.1112537 -0.95816422
14.401847 8.5520945 -0.5262171
14.745742 8.7206526 -0.5363937
15.181293 8.9289608 -0.55299938
18.20628 8.506052 -0.68859798
18.813608 8.5083675 -0.71604258
19.474791 8.702219 -0.52139342
19.671722 8.830616 -0.55824101
20.414799 8.9275255 -0.62708402
27.311577 8.5179157 -0.50219524
39.819206 8.9376411 -0.95415199
40.188717 8.8770552 -0.97910231
40.506493 8.8005781 -0.99969959
15.431064 9.036129 -0.56252712
15.752466 9.146636 -0.57226562
16.252075 9.3038206 -0.58943796
16.729689 9.4304571 -0.60704356
17.041492 9.4901323 -0.61662692
19.406944 9.2963171 -0.63419551
19.743729 9.1939926 -0.63315755
20.266224 9.2268753 -0.67301756
20.508867 9.2259083 -0.69011772
36.874504 9.4449759 -0.76067173
39.247868 9.1002169 -0.91857034
39.76276 9.0079126 -0.95274734
40.198189 9.2404556 -0.99399614
16.950489 9.5031509 -0.61980605
17.28384 9.5253258 -0.62372339
17.753389 9.5624666 -0.63476837
18.250214 9.6138859 -0.65437549
18.741156 9.6344919 -0.67309088
19.211918 9.6434469 -0.69367802
36.728813 9.5486298 -0.75484836
38.66396 9.7671461 -0.90380943
39.244942 9.8928633 -0.95128012
15.349424 10.341513 -0.50890309
15.697738 10.446675 -0.5153318
33.341908 10.123481 -0.54570085
36.941204 10.168492 -0.79842395
37.183861 10.106386 -0.8127563
15.939074 10.54325 -0.52507329
16.24963 10.656974 -0.53770083
16.744631 10.7657 -0.5487023
17.244211 10.770944 -0.54628301
17.74544 10.763302 -0.54588497
18.250687 10.746159 -0.54823983
18.760384 10.719356 -0.55329853
19.261864 10.692289 -0.5623613
19.715475 10.8036 -0.59614557
39.228363 10.739664 -0.98750699
19.954123 11.11193 -0.65562487
20.238092 11.177552 -0.6781196
20.714725 11.391598 -0.73437762
21.183708 11.379315 -0.75647044
21.369474 11.70276 -0.81746638
21.826124 11.794675 -0.85807925
22.266808 11.664448 -0.86579698
22.565294 11.522471 -0.86417943
38.201527 12.246765 -0.98862457
19.542141 12.766188 -0.5013572
20.032427 12.800856 -0.51653111
21.157072 12.894405 -0.56141472
37.761654 12.67925 -0.9812839
21.274231 13.080006 -0.58900875
21.756813 13.227207 -0.62512159
47.187683 13.467437 -0.53601289
47.980598 13.03823 -0.55410397
21.733931 13.534929 -0.66295278
22.31522 13.65349 -0.70046848
24.334999 13.949615 -0.83272576
24.76333 13.91356 -0.85225832
25.021545 13.838596 -0.85842001
47.243229 13.673729 -0.54469043
23.287334 14.342746 -0.82760859
23.768005 14.228651 -0.83662456
24.104315 14.105154 -0.83886063
26.254 -37.068531 -0.49105048
24.568439 -36.430508 -0.46276772
12.902597 -34.063126 -0.44797343
13.080939 -34.249207 -0.45272291
24.903152 -32.599987 -0.31386185
25.037079 -32.633781 -0.31553829
17.49086 -31.133535 -0.27575076
9.6817083 -28.530405 -0.28824878
37.144001 -26.724636 -0.25559047
9.7296085 -26.191729 -0.19660819
37.304646 -26.228424 -0.24404065
9.7314014 -25.787706 -0.18097281
8.3232965 -25.040245 -0.18625927
9.7399883 -25.368576 -0.16461909
13.70496 -25.065891 -0.076443911
44.486389 -23.111467 -0.3477962
44.584473 -23.259636 -0.35407662
12.455751 -17.059486 -0.45147043
12.813642 -17.264833 -0.4563075
40.565659 -17.363167 -0.10338688
41.086922 -17.170275 -0.11609179
42.22496 -17.346369 -0.15634608
42.53009 -17.162388 -0.1628691
40.329178 -16.842926 -0.085337281
41.047668 -16.938862 -0.11026561
40.426399 -16.335888 -0.078425407
15.365521 -15.969364 -0.30282626
40.9095 -15.729624 -0.082789719
42.92337 -15.767925 -0.15136361
52.477554 -15.671169 -0.49599433
40.422913 -15.071827 -0.054635525
40.780876 -15.448547 -0.073384166
40.351814 -14.8385 -0.048086226
40.770027 -14.703028 -0.059852839
42.91592 -14.864257 -0.13643092
40.753872 -14.088201 -0.048925083
42.27647 -14.090639 -0.10201621
40.981163 -13.989608 -0.055164576
41.002052 -13.890112 -0.054289818
42.325199 -13.840407 -0.099984765
42.535156 -13.644633 -0.10456526
14.136606 -11.573124 -0.47268772
15.482676 -11.860784 -0.46637154
15.708157 -11.977397 -0.47453082
17.315819 -11.967753 -0.45362887
17.620171 -11.411785 -0.39119464
13.928595 -10.631016 -0.3788175
41.995567 -10.830909 -0.04893446
12.424528 -10.153 -0.39697707
12.67494 -10.196001 -0.38853511
13.238413 -10.300238 -0.37246543
13.603479 -10.432293 -0.37052214
12.46105 -9.9287939 -0.37204957
14.409781 -9.9298153 -0.28588319
10.827608 -9.1996527 -0.40044755
11.753819 -9.2360373 -0.34309012
12.206986 -9.2821455 -0.32054225
14.371521 -9.1373272 -0.20200434
14.542109 -9.0272446 -0.18393463
15.396408 -9.299448 -0.18744314
15.517598 -9.2328157 -0.17711329
42.262623 -9.3968735 -0.045206267
42.513443 -9.151289 -0.052901506
14.887968 -8.7079115 -0.24191438
15.212531 -8.6805525 -0.33891675
15.571507 -8.7456045 -0.48933193
32.689137 -8.9086704 -0.35069406
42.409027 -8.8472672 -0.046477139
42.637691 -8.6787252 -0.054214835
51.458015 -8.7246275 -0.40854114
13.851166 -8.1467419 -0.47715473
14.237511 -8.0307503 -0.44041821
14.716166 -8.170989 -0.43760124
15.165001 -8.4801731 -0.10437065
26.195282 -8.4243212 -0.43341953
42.803314 -8.2795515 -0.058086175
13.356308 -7.6779599 -0.44294563
13.646055 -7.9117403 -0.4565497
14.286257 -7.9498529 -0.42641529
14.552853 -7.9666905 -0.41576898
42.862907 -7.8899975 -0.058095515
43.273399 -7.7276931 -0.073620588
43.741817 -7.5229411 -0.091417074
44.559929 -7.5827231 -0.12463748
45.393723 -7.7458949 -0.15896869
12.857171 -7.1472425 -0.40700114
13.13962 -7.4174609 -0.42237791
14.031747 -7.3704467 -0.35907674
43.326344 -7.4916339 -0.074570656
43.905926 -7.4730124 -0.097802043
44.809235 -7.233748 -0.13340545
11.352398 -6.5298419 -0.11511922
12.731533 -6.8382168 -0.37623429
15.017999 -6.5429101 -0.48886764
15.948654 -6.7213941 -0.4825021
16.168043 -6.7464676 -0.48114598
19.249172 -6.6195388 -0.49190795
44.892204 -6.9383054 -0.13580775
11.347961 -6.4762583 -0.11069179
12.860523 -6.1966009 -0.28298119
13.962294 -6.0232277 -0.46772742
14.279068 -6.1828723 -0.47160327
14.715387 -6.2867918 -0.46094874
17.815622 -6.2699251 -0.38563293
18.268604 -6.1059713 -0.14356096
46.466858 -6.3012133 -0.19902432
12.898889 -5.9201274 -0.24440016
13.487502 -5.7854562 -0.46822059
13.77149 -5.7913742 -0.44458389
14.080757 -5.9192033 -0.44090033
15.55273 -5.6558928 -0.30527425
17.69105 -5.7200141 -0.1993062
18.287518 -5.6955605 -0.22721919
21.68362 -5.5124989 -0.18706572
14.785017 -5.0827522 -0.49781805
15.308676 -5.1179667 -0.37618649
15.692717 -5.1478314 -0.27922261
16.002874 -5.2979317 -0.22369218
16.700556 -5.0509019 -0.40116382
17.860653 -5.3142548 -0.21453205
18.229622 -5.3103476 -0.31595051
18.772352 -5.0800376 -0.45217586
20.842924 -5.1658101 -0.23536068
21.314043 -5.2748723 -0.29148865
21.693909 -5.1831088 -0.26706213
22.001093 -5.2419286 -0.18234491
14.380027 -4.5857887 -0.43099844
14.617528 -4.7059298 -0.43373004
15.359961 -4.9502735 -0.23278776
16.480032 -4.6813979 -0.21435028
16.644505 -4.8362675 -0.35525042
17.317919 -4.5805082 -0.29740366
17.871639 -4.7185669 -0.33725753
18.412384 -4.8682842 -0.38947687
18.795506 -4.8493409 -0.40543997
21.364664 -4.7633262 -0.25734878
21.524117 -4.9850411 -0.11235976
26.179184 -4.7207632 -0.18237452
14.288312 -4.4750819 -0.41763297
14.513675 -4.2761006 -0.35560071
15.38176 -4.1093187 -0.46474832
15.683831 -4.3044524 -0.36520287
16.254059 -4.2197952 -0.056216281
16.810879 -4.1988297 -0.21467161
17.292604 -4.2520146 -0.17560549
17.736481 -4.2905731 -0.20642273
18.264713 -4.3146334 -0.29134139
25.92594 -4.1534362 -0.1278311
26.177555 -4.2649164 -0.15762304
43.848461 -4.2208519 -0.090291344
44.893723 -4.1362123 -0.1341815
49.490032 -4.3527637 -0.32686889
49.577877 -4.3713322 -0.33052576
14.812364 -3.751482 -0.42995313
15.143253 -3.9114525 -0.43607876
16.386135 -3.6597276 -0.19226004
16.839844 -3.7537985 -0.20871039
17.211967 -3.7485776 -0.15874225
17.811541 -3.7786791 -0.28885776
18.219501 -3.6932602 -0.323971
18.50927 -3.6320715 -0.33545667
26.272024 -3.7700298 -0.14203034
16.30072 -3.402164 -0.1063052
16.627439 -3.3542192 -0.21226285
17.322756 -3.2281666 -0.17933702
17.567629 -3.3504999 -0.21603826
20.657181 -3.1722603 -0.25227723
16.112492 -2.7815971 -0.085720502
30.214111 -2.7993116 -0.018798053
30.743126 -2.7570875 -0.057335228
31.236134 -2.7734962 -0.094150066
31.656647 -2.842329 -0.12630606
32.111439 -2.8320789 -0.16010022
5.307445 -2.1773646 -0.089489639
5.687633 -2.1664696 -0.054169245
22.44978 -2.111052 -0.41181773
23.572403 -2.2741342 -0.081789374
3.3752711 -1.5589123 -0.26430285
4.6263351 -1.8179249 -0.14857733
5.4422655 -1.829928 -0.072252095
5.5025287 -1.9398993 -0.068039894
6.407465 -1.5346252 -0.36178684
22.336046 -1.710884 -0.34747133
25.683754 -1.8271822 -0.0048747659
3.4215417 -1.3784922 -0.25870317
3.6094429 -1.1697882 -0.23961651
6.4043188 -1.3599074 -0.35851151
22.339041 -1.216421 -0.3466011
22.682491 -1.0025808 -0.23337978
-1.1650734 -0.80497676 -0.059766013
-0.9901123 -0.56019127 -0.050405979
3.6655247 -0.63858157 -0.232373
4.8730645 -0.71950483 -0.11704949
6.3852963 -0.6899631 -0.34975842
7.6464744 -0.72493958 -0.18716583
22.371826 -0.96109277 -0.4329325
22.664358 -0.84956694 -0.33542153
23.230326 -0.63686794 -0.43795046
23.826763 -0.74717879 -0.038176484
24.01984 -0.65365517 -0.062173724
25.429873 -0.75600326 -0.26666284
26.052467 -0.99109757 -0.023113966
-0.89960551 -0.27264792 -0.0467318
3.7114446 -0.25593823 -0.22774935
6.4217386 -0.25132892 -0.34040579
-0.75951552 0.23551919 -0.041967764
3.7876031 0.2593081 -0.2215196
6.4717507 0.18289751 -0.33125082
6.5312033 0.42585632 -0.32290375
-0.58403754 0.73429596 -0.035656795
3.908674 0.7682327 -0.21260247
6.5902638 0.75520951 -0.31565827
-0.39988858 1.2511281 -0.029744651
3.9804058 1.0634878 -0.20799404
4.043015 1.3094983 -0.20442069
6.6937652 1.2569599 -0.3050783
-0.24324203 1.7579798 -0.026195526
4.1347671 1.7524841 -0.20100993
6.7737136 1.749387 -0.3004927
-0.1209757 2.2575569 -0.025476456
4.2394576 2.2543857 -0.19870882
6.8402066 2.2534842 -0.30093482
-0.046726227 2.578495 -0.02565527
0.047628403 2.9553852 -0.025881052
4.2933407 2.7587154 -0.20312645
6.9137092 2.7554402 -0.30351931
35.72678 2.8181267 -0.46197766
0.098781161 3.2461374 -0.027737882
4.3639879 3.2587254 -0.20763604
6.9712429 3.0975418 -0.306034
7.034379 3.351449 -0.30629647
36.042259 3.0397277 -0.49062777
0.20922068 3.7641897 -0.030465828
4.4593573 3.7311082 -0.21075626
4.5079622 3.9665833 -0.21276975
7.1450429 3.7529228 -0.30707657
51.454811 3.7279158 -0.4857803
0.36368644 4.2695289 -0.031112155
4.5790515 4.2416434 -0.2144177
7.3309331 4.2575579 -0.30502722
31.616581 4.1272688 -0.1734612
32.260391 4.0773311 -0.22152144
32.861786 4.4944115 -0.27904487
0.45777917 4.7536707 -0.035810515
4.6985679 4.7534804 -0.22003464
7.4512925 4.6162877 -0.30708402
7.5948896 4.8568525 -0.30172354
9.1684189 4.7907176 -0.40072605
10.420535 4.7404313 -0.4638193
10.5967 4.9422641 -0.45250598
11.670834 4.9261322 -0.48816893
14.102777 4.989419 -0.057071544
14.981985 4.7796698 -0.032254636
15.12845 4.7669458 -0.0090663359
19.381321 4.8274899 -0.10694574
19.70245 4.6987185 -0.13127242
20.288389 4.729517 -0.18071666
20.71347 4.6704903 -0.21122764
21.245728 4.712503 -0.30290887
21.544733 4.7199702 -0.49145114
0.64387417 5.1887836 -0.034541994
1.1155844 5.3993816 -0.011106491
4.8219109 5.1041451 -0.22105749
5.2290344 5.269372 -0.18951382
5.9032745 5.2417774 -0.12598538
6.7692924 5.2809362 -0.048033535
7.9248667 5.2179251 -0.28144321
8.003768 5.1997218 -0.27059391
9.4681835 5.1938825 -0.3864471
9.5324955 5.4354434 -0.39732039
10.760929 5.2639108 -0.45927939
11.838963 5.1862106 -0.49263632
12.046978 5.4256082 -0.48942724
12.835414 5.141551 -0.49849355
13.069852 5.3727627 -0.4971441
13.958176 5.0398955 -0.17415451
14.212898 5.0729146 -0.15167822
19.354111 5.2529531 -0.14366342
19.68656 5.2448487 -0.082538642
20.333984 5.1362619 -0.19119532
20.885952 5.266736 -0.14830959
21.23877 5.4445233 -0.12347973
21.629515 5.3306856 -0.16209818
33.967987 5.2571063 -0.38594282
34.745949 5.2963634 -0.44631267
35.269703 5.138011 -0.48155776
1.1395004 5.7447677 -0.018430855
5.263382 5.6751056 -0.20280485
6.2859626 5.5937948 -0.10572368
7.2997756 5.7626162 -0.021917891
8.0519161 5.7380095 -0.29847875
9.7054577 5.751801 -0.40072823
10.947134 5.5585032 -0.46182507
11.133692 5.8073454 -0.46228123
12.270844 5.6853375 -0.49112156
12.502738 5.9592509 -0.49757302
13.850903 5.9861159 -0.4937185
14.199117 5.6012115 -0.34779859
19.412666 5.7537875 -0.23969002
19.681995 5.7974858 -0.12405818
20.307909 5.8487582 -0.09660808
20.977421 5.5973063 -0.11089507
21.212383 5.5731015 -0.13844055
