# .PCD v0.7 - Point Cloud Data file format
VERSION 0.7
FIELDS x y z
SIZE 4 4 4
TYPE F F F
COUNT 1 1 1
WIDTH 1609
HEIGHT 1
VIEWPOINT 0 0 0 1 0 0 0
POINTS 1609
DATA ascii
50.262093 105.08219 0.83289945
50.715244 105.24194 0.82702321
51.241528 105.38871 0.82007569
51.525169 105.4993 0.81317317
57.916534 105.49396 0.61906451
58.260696 105.42264 0.6021902
58.763374 105.27768 0.57809931
59.269714 105.13198 0.55122995
59.603775 105.02406 0.53286535
51.773746 105.55731 0.80889165
52.248043 105.64811 0.80051577
52.75909 105.72707 0.79035175
53.267254 105.81432 0.77712852
53.75386 105.87762 0.76358116
54.244873 105.9077 0.74992812
54.763176 105.93976 0.73306262
55.255856 105.93509 0.7171399
55.749485 105.90591 0.70052999
56.267029 105.82954 0.68374425
56.755493 105.75376 0.66580665
57.239407 105.65707 0.64713752
57.661499 105.55627 0.63011748
92.771835 111.14879 0.82844007
63.913921 112.47777 0.66802418
64.215691 112.39292 0.64924926
93.229568 112.403 0.87808782
93.522919 112.29385 0.85306334
62.402439 112.96677 0.75321805
62.74921 112.87686 0.73412877
63.257935 112.72799 0.70550877
63.671707 112.57869 0.68193948
93.205231 112.66779 0.89596963
94.982483 112.93874 0.80221546
57.239311 113.46189 0.99078703
57.761108 113.49086 0.97016823
58.10796 113.49237 0.95633715
58.894855 113.47775 0.92334634
59.734501 113.47773 0.88440299
60.270344 113.4564 0.858509
60.755188 113.40715 0.83481777
61.225998 113.30543 0.81222963
61.732143 113.16274 0.78762436
62.157028 113.04604 0.76588917
93.287231 113.27996 0.92850548
94.011612 113.33212 0.88692641
57.506287 113.51834 0.97908676
58.376286 113.51894 0.94442433
58.637959 113.5142 0.93344957
59.256989 113.51265 0.90587598
92.982635 113.6543 0.97010708
93.03212 113.50426 0.95793712
93.059021 114.09357 0.99203718
100.3871 115.69997 0.63709813
78.28199 116.25327 0.67065573
77.366989 116.74267 0.75100219
77.716339 116.7536 0.72514957
78.12487 116.64392 0.69186932
98.855164 117.48776 0.84209025
97.681641 118.72058 0.98742199
34.407951 49.84409 1.0604199
34.735703 49.707119 1.0420375
35.09724 51.949306 1.1192883
34.431114 52.665291 1.1755774
34.803223 52.930855 1.1714782
107.24892 53.27084 1.2616392
34.946159 54.107708 1.2144967
39.262527 54.390892 1.0591587
35.209511 54.917839 1.2374483
39.813515 54.899372 1.0593252
38.98505 55.248318 1.1032751
39.170731 55.025482 1.087599
35.484367 55.722473 1.2597237
38.948475 55.652454 1.1207278
38.259338 56.422123 1.1777226
38.933033 56.410271 1.151588
90.234329 56.279018 1.0045832
38.567177 56.796112 1.1810015
39.131752 56.55505 1.1499125
90.189842 56.771145 1.0298262
90.336487 57.209682 1.0567218
90.339706 57.76585 1.0868207
90.416977 58.142357 1.1090839
90.381447 58.717022 1.1396375
90.607941 58.964005 1.1586384
37.319748 59.425743 1.3387712
90.746117 59.271427 1.1789769
91.121399 59.400215 1.1953007
98.815811 59.215172 1.3845348
37.364811 59.878433 1.355891
91.051865 59.667538 1.2084831
91.84848 59.900227 1.2413925
98.815674 59.667496 1.411413
37.425369 60.350952 1.3732411
90.91169 60.092716 1.2287823
91.044411 60.303886 1.2439421
91.85862 60.313965 1.2650448
94.925537 60.210026 1.3385593
95.353958 60.231106 1.3511523
95.73037 60.291634 1.3647276
96.166183 60.332012 1.3787948
98.85379 60.21579 1.4452454
36.943932 60.652458 1.4063864
37.249516 60.612095 1.3916945
92.277695 60.526291 1.2878003
92.659569 60.665367 1.3055879
93.252213 60.652817 1.3202561
93.647003 60.787052 1.3383468
98.86631 60.743446 1.4773326
98.873329 61.068817 1.4971999
40.427822 63.652412 1.3875277
40.526886 63.526985 1.3783855
47.928928 70.62674 1.3909597
48.006924 70.654373 1.389577
41.463638 75.132858 1.2013183
43.053764 75.156113 1.1594418
43.340229 75.649376 1.1882386
43.898735 75.874283 1.1898813
44.827301 76.317291 1.1979461
107.7428 77.975769 1.0003071
107.62115 78.197815 1.0190487
105.56837 78.893387 1.0769217
107.58167 78.990135 1.0862463
105.52666 79.189293 1.1020064
46.343079 80.269112 1.4494071
46.532639 80.246223 1.4425342
48.742588 80.372498 1.0446385
46.377415 80.710182 1.4813007
46.824352 80.948967 1.4867728
47.920471 80.590134 1.0737954
48.114731 80.966766 1.1112199
45.115906 81.112473 1.1430947
46.710655 81.284065 1.1985128
47.076546 81.313156 1.1536252
47.988037 81.469223 1.1638625
48.118763 81.31324 1.1468971
46.739258 81.780952 1.2030909
47.051933 81.536179 1.1765244
47.772881 81.619308 1.1806707
26.440712 82.427353 1.28684
46.707973 82.220505 1.2477629
47.281952 82.417953 1.2649647
60.478119 82.218964 1.0106982
26.451965 82.578949 1.3008687
46.730228 82.737175 1.2997727
47.323097 82.607864 1.2840134
48.737915 82.859016 1.0251031
46.716927 83.030136 1.3292763
48.784206 83.300484 1.0836283
26.53953 83.865891 1.4194201
47.609375 83.93927 1.2806473
48.807854 83.758408 1.143476
26.55422 84.1101 1.441802
47.481934 84.164009 1.1683253
47.707359 84.26268 1.2493861
48.307304 84.355667 1.257298
48.656761 84.154007 1.1770992
26.582182 84.647888 1.4909618
30.460789 84.527336 1.4821416
46.891376 84.69355 1.2179415
47.386414 84.787827 1.2418735
47.711121 84.763496 1.2831703
48.073517 84.703766 1.4917597
48.78907 84.748077 1.0438346
47.446884 85.106804 1.2816548
47.704132 85.141296 1.2924391
48.773422 85.235382 1.1158297
60.472305 85.411736 1.0394211
47.873863 85.834412 1.3788168
48.022064 85.803146 1.3793527
48.717064 85.792229 1.1410637
49.428787 85.950142 1.0717734
61.130161 85.539284 1.0118016
47.497482 86.316467 1.4230763
47.611946 86.193008 1.4125322
48.406258 86.369774 1.2178445
48.603199 86.223602 1.140427
49.267929 86.088646 1.082306
62.067108 86.455826 1.0490229
34.300018 86.860992 1.0257716
34.562279 86.827484 1.0319014
35.274807 86.762894 1.0510164
35.677544 86.692657 1.0585551
47.481911 86.569359 1.4507444
47.68153 86.661583 1.4327054
48.242374 86.756523 1.2340558
48.521294 86.610474 1.1001947
65.334785 86.923592 1.3063967
33.316944 87.400902 1.0415367
33.884628 87.261292 1.048738
34.066769 87.234756 1.0527534
34.772087 87.148064 1.069723
35.291485 87.111351 1.0847398
35.680008 87.094879 1.0969961
41.505566 87.44455 1.3369354
44.582077 87.103096 1.0948106
47.842777 87.288773 1.2979227
48.309113 87.207436 1.1788512
48.60738 87.30394 1.0254086
49.421017 87.482597 1.1066617
49.626759 87.380882 1.1387019
62.034035 87.362335 1.1437929
62.774208 87.479469 1.1048108
64.831413 87.306519 1.3584546
65.102333 87.07457 1.32809
32.218899 87.851135 1.0439126
32.820324 87.641739 1.0461473
33.262718 87.775963 1.0743744
33.669891 87.566833 1.0695852
44.670044 87.780685 1.3069698
46.952354 87.727013 1.3257746
47.224819 87.839806 1.3399564
47.855911 87.870605 1.1806462
48.125397 87.736122 1.1308472
48.586914 87.871185 1.2204823
49.48695 87.508621 1.1703686
49.534042 87.505722 1.1759255
61.686768 87.724258 1.2032604
62.636124 87.670166 1.132903
64.390266 87.826447 1.3490347
64.568489 87.689903 1.1518341
31.553427 88.485832 1.077816
32.357525 88.151611 1.0763471
32.859253 88.275391 1.1056077
47.281597 88.232567 1.2966459
47.701466 88.226372 1.1590048
49.216019 88.194771 1.0799913
62.971443 88.265755 1.1666944
63.035999 88.279419 1.1634836
64.190346 88.282997 1.333861
29.979889 88.955154 1.0633438
30.295734 88.699837 1.051875
30.505566 88.604767 1.0508969
46.810139 88.855255 1.3178682
47.312389 88.792183 1.1695002
47.5448 88.585503 1.195298
48.242298 88.971687 1.0016656
60.489754 88.886673 1.1412632
60.71022 88.729012 1.1033006
61.073883 88.709602 1.0635866
64.113472 88.719315 1.2010226
29.611666 89.362511 1.0861831
30.257645 89.158531 1.0913754
35.954025 89.415916 1.3187561
36.004574 89.475449 1.3257941
46.367031 89.392136 1.4472297
46.73674 89.270477 1.2791965
47.148922 89.102287 1.2151883
47.589294 89.387039 1.1291429
48.188778 89.165108 1.1947999
48.946346 89.469437 1.0140665
59.848095 89.211349 1.0048872
60.771645 89.218819 1.1419615
61.294357 89.35524 1.0993772
61.510162 89.467133 1.0865798
64.078293 89.2425 1.1789196
35.878109 89.777176 1.3475415
36.013832 89.563919 1.3338652
45.739639 89.904572 1.4456341
46.399738 89.657524 1.4720734
46.860989 89.766533 1.1870768
47.15123 89.744232 1.2181145
47.708164 89.722839 1.1512709
48.108059 89.915253 1.0561132
48.893021 89.609367 1.0131921
60.923229 89.561882 1.1560771
64.288597 89.7369 1.2074839
37.144676 90.462891 1.4516267
45.427578 90.37381 1.2820472
45.581535 90.214272 1.4588507
46.721004 90.034538 1.232254
47.403507 90.17836 1.1892745
47.856548 90.366959 1.0383121
60.149567 90.47216 1.0617948
61.122398 90.138092 1.1825097
61.614288 90.414291 1.1528348
62.695938 90.433685 1.0420297
64.383614 90.053314 1.2279587
64.625641 90.30851 1.2326535
29.594374 90.96302 1.2236856
37.389462 90.675987 1.4782444
37.502594 90.601166 1.4760476
45.445431 90.547546 1.2640415
45.706181 90.610962 1.3078661
46.08992 90.995636 1.2900667
46.866096 90.695709 1.2748122
47.041981 90.712822 1.1433071
47.579845 90.753174 1.00818
60.195557 90.780762 1.0752326
62.371193 90.553238 1.0849363
62.785889 90.79332 1.059906
63.226265 90.899826 1.0224526
64.954163 90.56459 1.2312517
65.296211 90.658852 1.2154291
24.725449 91.170486 1.0669446
45.826626 91.214592 1.2758363
46.381565 91.315384 1.1455107
46.54657 91.226738 1.3498386
47.408791 91.203163 1.1687105
47.615921 91.387314 1.0337112
60.172478 91.246712 1.1320243
61.083313 91.222328 1.2655185
61.776962 91.043091 1.1822389
62.786617 91.282921 1.0953448
63.129784 91.20771 1.0548804
45.308685 91.850517 1.2577536
45.540405 91.627182 1.2695282
46.205589 91.988327 1.2845664
46.799782 91.636398 1.1509103
47.664673 91.570648 1.0451739
60.229282 91.674767 1.1444767
60.501694 91.559227 1.3460541
62.81768 91.542191 1.1102388
63.828094 91.539299 1.0066168
67.910225 91.805893 1.1283038
75.465782 91.964096 1.4059387
75.590126 91.7817 1.3859795
45.866669 92.191673 1.0464507
46.248825 92.203819 1.2074529
46.542572 92.466553 1.1405989
60.26181 92.071472 1.1340972
60.919464 92.032501 1.0456821
67.724228 92.239166 1.1750096
75.474701 92.0867 1.4161867
75.652802 92.340408 1.4319248
46.720135 92.707054 1.1668988
67.707619 92.602684 1.2042013
68.152878 92.84198 1.1922233
75.795708 92.55867 1.4457889
24.655691 93.232826 1.2354523
25.591965 93.346298 1.2777445
41.293636 93.36937 1.3784099
42.156971 93.13623 1.4216096
43.916428 93.465042 1.1927066
41.357552 93.813965 1.4085788
42.197117 93.787201 1.2921226
42.744797 93.863892 1.0961051
43.902233 93.550079 1.1945716
44.114998 93.763199 1.2222004
71.62516 93.89164 1.0364592
44.11552 94.060867 1.2321706
48.752476 94.322487 1.2708082
71.614265 94.261086 1.0648777
48.779697 94.545654 1.1854579
49.405056 94.776695 1.2524145
49.60289 94.790031 1.330875
71.641548 94.750542 1.0991992
49.663757 95.008064 1.4202416
71.701355 95.11776 1.1219538
37.880215 95.897308 1.2994994
22.789087 96.470642 1.4244004
34.131401 96.179741 1.0721616
33.925491 96.59623 1.0828177
33.489494 97.635208 1.112554
33.268562 98.222153 1.1297945
72.269485 98.386017 1.3096235
72.770775 98.300003 1.2717764
32.91275 98.939682 1.1444892
33.055664 98.657143 1.1390008
72.214806 98.767181 1.3379101
32.723083 99.290222 1.1503105
72.18235 99.247536 1.3707938
77.852074 99.395164 1.0158621
32.396843 99.902771 1.1603446
32.53791 99.649597 1.1566608
42.427113 99.897774 1.1815668
42.750675 99.944092 1.2043294
43.048721 99.972168 1.2248888
47.849346 99.90696 1.2802085
48.365601 99.826874 1.1015285
66.281631 99.940567 1.1793211
66.760429 99.949142 1.1389595
67.266296 99.922188 1.0945672
72.212341 99.60244 1.391413
77.485954 99.940056 1.0765483
77.601944 99.693748 1.0524232
32.168507 100.2975 1.1653693
41.467476 100.13925 1.1131306
41.74382 100.13263 1.1332735
42.231232 100.20422 1.1683047
43.12138 100.04129 1.2297771
44.283813 100.35263 1.3031102
47.892918 100.44534 1.044072
48.452667 100.17507 1.0865498
48.763561 100.21668 1.0982146
49.264267 100.30035 1.1135587
49.740452 100.29647 1.1302782
50.175129 100.1357 1.1530169
61.413193 100.47827 1.0816091
64.878922 100.2119 1.3032197
65.253143 100.06564 1.2686753
65.724823 100.0323 1.2288295
66.049103 100.01151 1.2011771
77.445793 100.12882 1.0917691
32.136917 100.73882 1.1842492
44.26553 100.68233 1.2995477
44.670929 100.68826 1.3230947
47.345318 100.65893 1.0032395
47.652603 100.70283 1.017704
49.538544 100.50208 1.1112046
51.864113 100.73169 1.1386055
59.945339 100.93877 1.1970891
60.790192 100.70953 1.1324518
61.03598 100.60302 1.1130888
61.624878 100.52818 1.0621755
62.685162 100.5495 1.4797815
64.937706 100.65353 1.3107449
65.022392 100.89724 1.3105936
32.329563 101.20408 1.2170447
32.557022 101.45724 1.2417953
33.335979 101.32224 1.2815377
39.886215 101.38724 1.0033766
45.90218 101.4818 1.3767664
47.243549 101.44172 1.4343461
47.878662 101.40871 1.4576166
48.069225 101.43512 1.4631678
48.93988 101.44273 1.4874376
49.077171 101.39029 1.4921503
50.368774 101.35706 1.079414
50.652775 101.19656 1.095183
65.15657 101.29671 1.3105272
32.796139 101.74861 1.2682457
33.327934 101.6133 1.2934816
34.273445 101.81445 1.3557328
45.866756 101.54479 1.3740425
46.247955 101.61364 1.3900642
46.538734 101.60596 1.402817
47.251968 101.75831 1.4277543
47.989071 101.97923 1.4473317
48.068672 101.97752 1.4497709
48.695065 101.52676 1.4789425
49.251438 101.66544 1.4307857
49.914707 101.86472 1.0366869
59.494801 101.8683 1.2119607
65.311394 101.8099 1.3115727
32.977913 102.07587 1.2926919
33.344597 102.08734 1.3141134
33.518631 102.21486 1.329204
34.344677 102.14878 1.3729762
43.621166 102.25774 1.248175
45.251678 102.26229 1.333364
45.828335 102.2125 1.3608094
46.477142 102.19444 1.3887105
46.504822 102.14136 1.3909074
47.231895 102.49013 1.4105517
48.173569 102.16798 1.4479904
49.255013 102.25042 1.2368798
49.93792 102.32463 1.0077697
50.013779 102.30069 1.0109903
50.515717 102.15955 1.0297607
59.560337 102.15435 1.2011117
65.274368 102.0055 1.3192959
34.509048 102.61314 1.3998317
43.578842 102.78235 1.2402827
45.771431 102.52383 1.3526794
33.082081 103.32385 1.3483266
34.236115 103.48333 1.4169788
33.165928 103.70273 1.3672019
34.332195 103.57995 1.4255368
34.620251 103.68649 1.4445506
33.129517 104.02281 1.3770598
34.397926 104.4447 1.4587927
34.675774 104.38127 1.4709716
44.870323 104.98462 1.2676347
50.431713 104.94384 1.4034345
50.995609 104.9149 1.406176
51.05341 104.89902 1.4067494
33.243786 105.14613 1.422635
42.058178 105.18885 1.1298475
48.996262 105.41296 1.3742619
49.278286 105.23624 1.3835039
49.630703 105.19381 1.3890249
50.853504 105.11594 1.3993593
33.408894 105.70187 1.4495491
33.529083 105.89081 1.4617088
49.089325 105.64072 1.3687017
49.959213 105.92403 1.3690581
50.186855 105.86185 1.3725086
51.741066 105.70081 1.3784298
33.663513 106.24894 1.4796342
45.072472 106.27605 1.2485067
49.728058 106.14786 1.3601072
33.808075 106.60119 1.4975123
43.176704 106.54601 1.1653775
52.407867 108.69666 1.2712934
52.247898 109.17629 1.2566843
53.349098 109.36556 1.2351283
53.591644 109.23677 1.2352426
52.148865 109.64338 1.2417891
52.992523 109.86877 1.2236462
53.10141 109.70708 1.2275121
48.037643 110.17587 1.2165066
48.997227 110.35896 1.2208436
49.793209 110.329 1.2261969
50.745861 110.41665 1.2239417
51.209839 110.40631 1.222687
51.515743 110.49495 1.218073
52.050747 110.09824 1.2272685
52.916267 110.12745 1.2159246
51.732868 110.90588 1.2025533
52.711411 110.75452 1.1973284
51.767849 111.02544 1.1982746
52.521149 111.26283 1.1824505
54.415318 111.88916 1.1276166
54.751778 111.68899 1.126379
55.170448 111.60275 1.1185292
53.872036 112.14068 1.1305888
54.130043 112.83374 1.1016645
54.306683 113.08478 1.0893036
55.745457 113.42996 1.040823
56.251621 113.4252 1.0256122
56.764084 113.43729 1.008358
92.423431 114.44001 1.0516818
92.651085 114.21398 1.0242361
92.251305 114.7203 1.0788566
67.830276 117.45183 1.3946153
68.270149 117.35135 1.3683203
68.727646 117.26461 1.3406235
69.241249 117.16666 1.3088696
69.774063 117.08855 1.275552
70.130791 117.02975 1.2527883
66.907928 117.68269 1.4482361
67.224342 117.58596 1.4299181
67.552162 117.51271 1.4109615
67.06617 118.2852 1.4452051
92.448135 118.26146 1.273243
66.296501 118.7402 1.4899964
66.73278 118.62476 1.4660817
67.06041 118.53568 1.4477974
96.708405 118.83562 1.0528708
97.07666 118.74814 1.0255687
97.549194 118.85475 1.003356
96.403442 119.17406 1.0909607
96.521645 119.0451 1.0763534
96.621788 119.65642 1.1059735
96.311409 120.33974 1.1639144
96.569702 120.0822 1.133739
96.185532 120.5849 1.1854326
56.329048 22.902336 1.8327268
56.848312 23.871628 1.8271681
57.177368 23.996437 1.8234252
57.631172 24.021042 1.8183903
77.745247 24.415878 1.8613552
77.8992 24.688179 1.8653144
78.195328 24.587471 1.8690008
57.958134 25.772141 1.8165797
58.392876 25.88586 1.812374
61.731499 25.912739 1.7878603
58.159397 26.040005 1.8148102
58.612022 26.048389 1.8104638
59.436314 26.45277 1.8037146
63.491562 26.018326 1.7811722
80.693314 26.358152 1.9232522
59.204102 26.579128 1.8057789
59.747162 26.644907 1.8014897
60.052441 26.874187 1.7994846
61.355858 26.997032 1.7914213
61.85397 26.575062 1.7882518
62.149284 26.840437 1.7873217
62.908329 26.950779 1.7845935
63.113361 26.986828 1.7840108
60.350903 27.144878 1.7977456
60.777527 27.281477 1.795169
61.092926 27.338455 1.7933697
62.467148 27.013645 1.7862853
62.641594 27.249966 1.7860287
79.594521 27.14852 1.9097713
52.851204 43.695053 1.8997298
53.250671 43.745522 1.8929812
54.352383 46.974159 1.8780712
54.789219 46.887306 1.8718852
53.825638 47.35434 1.8862556
54.251842 47.088184 1.8796544
54.632332 47.186203 1.8742665
52.613918 48.450569 1.9074157
52.757263 48.568443 1.9049281
53.329823 48.536919 1.8950638
52.353168 49.308155 1.9128641
51.979561 50.451176 1.9208726
52.101639 50.251144 1.9183429
51.205532 50.993912 1.9371907
51.722332 50.757153 1.9262489
50.7127 51.493114 1.9484869
51.402271 51.063828 1.9330831
50.903351 51.642941 1.944355
51.108135 51.724564 1.9399213
49.171402 52.433296 1.9872682
49.920456 52.216446 1.9679154
50.243038 52.199909 1.9600941
50.574768 52.304989 1.9524074
49.198303 52.668201 1.9868942
49.640034 52.592224 1.9753447
48.859146 53.057949 1.996475
29.35001 59.348694 1.6996555
29.372078 59.693024 1.7148495
29.389349 60.130501 1.7347679
98.90596 61.381737 1.5171182
32.737381 61.956921 1.6559355
33.319839 61.962624 1.6282446
33.660069 61.939175 1.6110172
34.740585 61.756294 1.5523355
35.085339 61.75415 1.5364223
35.769962 61.782551 1.5066861
98.934822 61.803505 1.5436548
98.94902 62.225407 1.569922
98.988808 62.735199 1.602502
98.957092 63.166023 1.6282889
99.009216 63.346642 1.6410445
37.200317 63.631226 1.5236806
98.989899 63.556545 1.6535798
99.032211 63.845642 1.6729168
99.051491 64.249611 1.6988833
99.081596 64.747185 1.7312465
32.562778 65.360558 1.8257723
99.112228 65.240822 1.7635697
99.162422 65.723457 1.7959971
31.777126 66.35582 1.9155643
32.048054 66.180611 1.8926108
99.179375 66.217957 1.8283777
37.258781 66.595901 1.6529053
99.202362 66.691971 1.8598326
99.26638 67.24604 1.8979825
37.382477 67.735641 1.6990656
93.690033 70.340202 1.9294096
37.567337 70.929626 1.8404267
93.264954 70.96489 1.9575516
93.836929 70.532959 1.9467024
93.288696 71.20134 1.9740235
92.905457 71.617859 1.9898292
28.353371 76.09726 1.6759186
28.739212 76.081848 1.6622934
42.262955 77.176155 1.9040214
26.236959 78.444481 1.9347157
42.072231 78.28627 1.970222
42.268875 78.733879 1.98268
45.263077 79.749451 1.8754025
46.316788 80.423431 1.8548268
32.593086 81.101791 1.9426386
37.956345 81.219757 1.7772576
45.814758 81.332664 1.5438552
46.096821 81.254753 1.5299447
46.630863 81.258698 1.5152268
45.759598 81.524101 1.5599041
46.756065 81.838516 1.6922964
44.930286 82.142159 1.6314654
45.007912 82.057976 1.6226759
46.456398 82.332947 1.6009856
37.037285 82.61631 1.9201016
44.69503 82.861877 1.6942548
44.236084 83.179543 1.7332876
45.109608 83.212593 1.7087977
38.662636 83.689781 1.9543686
47.782387 83.741638 1.6693008
39.29348 84.312675 1.9846975
39.515579 84.201515 1.9681787
47.460526 84.261139 1.7184407
47.851131 84.294548 1.8088988
26.601593 84.880127 1.5121392
44.612171 84.843224 1.8533709
47.762428 84.757248 1.7667445
48.091541 84.839752 1.5052565
26.61618 85.120193 1.5339936
38.899441 85.318008 1.5585073
39.01395 85.133224 1.54136
44.653629 85.014847 1.8658297
46.924187 85.317238 1.8172414
47.252407 85.18576 1.6391188
47.773033 85.176193 1.604635
48.41864 85.261131 1.9866469
38.115345 85.937874 1.6155037
38.635342 85.762589 1.5995715
47.262665 85.739357 1.7231621
47.598881 85.63356 1.7206675
23.042995 86.00383 1.6113622
30.379602 86.308525 1.6443993
38.090889 86.041939 1.6250567
46.686241 86.499748 1.9198202
47.160648 86.404144 1.7601428
47.655643 86.310234 1.6907157
12.271641 86.721779 1.6669735
15.858614 86.609558 1.6599416
27.611008 86.893829 1.6950274
28.665817 86.689079 1.6774492
29.789194 86.834267 1.6913899
30.197849 86.570618 1.6679482
46.880871 86.704857 1.7405609
47.183708 86.616447 1.7417325
47.76759 86.547173 1.7465247
65.617676 86.988029 1.7419324
27.792519 87.176559 1.7205417
41.482979 87.09314 1.7232137
41.508675 87.286026 1.7408019
46.394936 87.144302 1.7299622
46.703602 87.074135 1.723419
47.169376 87.108154 1.7265905
64.911118 87.426781 1.7789133
65.19529 87.21154 1.7607168
41.524418 87.561729 1.7658979
64.647285 87.746834 1.8061846
-7.0217094 88.257523 1.7868429
-6.9247513 88.468491 1.8055942
2.7879372 88.063538 1.7781916
31.992931 88.442299 1.8370824
32.047764 88.370346 1.8307322
32.800964 88.186462 1.8150053
33.105103 88.248444 1.8207836
64.436333 88.266685 1.8509039
64.544914 88.215431 1.8465308
32.142349 88.517738 1.8439138
32.669731 88.643021 1.8554908
64.248299 88.779182 1.7231215
29.406425 89.215652 1.9033097
34.586601 89.315117 1.9166033
36.171619 89.425484 1.9277062
45.652397 89.302505 1.9251318
64.269447 89.229012 1.7374955
64.511765 89.465263 1.9560201
33.956768 89.88652 1.9662709
34.202431 89.778442 1.957009
45.818298 89.608917 1.9521582
46.290577 89.572815 1.9494036
47.995861 89.933533 1.9820404
48.007175 89.912376 1.9802309
64.318977 89.722961 1.5918833
64.715416 89.731544 1.9469829
36.018089 90.201233 1.9955509
42.295383 90.454224 1.6348072
64.741547 90.180962 1.6173729
65.115845 90.437996 1.6268829
37.528511 90.878075 1.500047
42.317364 90.53038 1.6418613
42.768223 90.586243 1.6624458
45.895844 90.811226 1.5249743
46.003609 90.869286 1.5365481
45.794334 91.212296 1.545346
67.914001 91.468903 1.6203151
37.802917 91.66246 1.5737209
38.213089 91.735291 1.5939937
38.741772 91.800568 1.6177753
39.166824 91.803909 1.6329577
39.812439 91.828857 1.6575136
40.040836 91.91703 1.6723852
45.405296 91.79641 1.5563775
45.581596 91.578636 1.554661
67.806618 91.737312 1.6468822
39.940132 92.209473 1.6914911
40.009438 92.111969 1.6864002
46.067894 92.353073 1.6317357
67.440498 92.412903 1.7165931
67.704079 92.157524 1.6860816
67.383469 92.552292 1.7302704
67.610703 92.711456 1.7360082
38.440689 93.326454 1.7243617
39.442627 93.257988 1.7532922
39.504356 93.319389 1.7598884
43.802902 93.158592 1.5303253
71.726974 93.917831 1.6988059
48.770573 94.359833 1.7091128
71.755272 94.233238 1.724275
48.866592 94.560127 1.6202338
49.456635 94.847992 1.8892401
49.589775 94.809219 1.7484429
71.783646 94.725052 1.7643651
49.630722 95.049217 1.6572698
71.784096 95.076172 1.7935339
73.051025 98.064163 1.9966356
78.338074 99.396645 1.9317802
78.762993 99.264259 1.9069742
79.387993 99.296776 1.8890281
47.873001 99.881081 1.9091787
48.366631 99.825043 1.6745379
65.722931 99.853233 1.7963805
66.21357 99.669868 1.7583666
66.709366 99.613937 1.7265631
67.107758 99.657867 1.7057718
67.507187 99.841904 1.6927633
77.954681 99.950813 1.9894853
78.087097 99.702148 1.964921
24.992105 100.47889 1.7886485
27.758944 100.31058 1.8654029
41.94529 100.45126 1.7073662
42.041397 100.47287 1.7123103
46.252789 100.26892 1.8704408
50.199245 100.16216 1.7616171
65.251152 100.22659 1.8426906
77.898903 100.02843 1.9976132
19.668051 100.61568 1.6241765
20.266808 100.66536 1.6475267
20.664833 100.78508 1.6691175
25.129044 100.59483 1.8010118
26.715704 100.6593 1.8559486
27.700663 100.79723 1.8961378
30.016138 100.70235 1.9613845
42.072716 100.5591 1.7159839
50.821934 100.97353 1.9520873
61.278179 100.77041 1.5819679
61.855507 100.73752 1.542269
64.965302 100.89464 1.8929915
65.027725 100.63618 1.8763474
20.639441 101.31107 1.7052971
25.161392 101.15453 1.8401853
26.611185 101.03001 1.8775741
27.672802 101.2605 1.9259491
47.946938 101.41343 1.9246588
48.894474 101.36407 1.9393561
50.83036 101.03229 1.7419081
64.980507 101.23853 1.9096529
65.004478 101.474 1.9202547
20.678545 101.61349 1.7276849
26.830339 101.71165 1.9296508
27.658426 101.53413 1.9434993
41.385696 101.98083 1.7215116
42.820656 101.72143 1.7750152
43.599205 101.73165 1.8050454
61.102425 101.82191 1.6091778
65.130859 101.78045 1.9289331
41.379078 102.12211 1.7246348
42.615234 102.10225 1.7749313
61.147614 102.04317 1.6093951
23.422497 102.815 1.8968805
43.670094 102.7219 1.8253971
23.674559 103.075 1.9219282
24.459961 103.31744 1.9619788
25.235567 103.18092 1.976746
25.685579 103.13699 1.9875519
26.164087 103.06801 1.9975653
41.749352 105.4117 1.8054233
44.191284 105.35086 1.8788445
44.760696 105.0938 1.890438
41.89436 105.55993 1.8128492
43.409351 105.84762 1.8637609
44.919193 105.96688 1.9033982
45.004105 105.94215 1.9050527
43.83231 106.33249 1.881121
45.111191 106.02598 1.9082158
46.664097 106.09178 1.9375628
47.395515 106.03595 1.947368
47.638199 106.09172 1.9505234
49.194725 106.3365 1.9631791
105.97454 106.38606 1.5910838
33.919876 106.8658 1.5107707
43.366173 106.6004 1.8720908
43.63166 106.55276 1.8785197
105.60719 106.76564 1.6347198
34.095592 107.25932 1.5304902
34.273579 107.65221 1.5497627
35.041374 107.98392 1.5933716
34.692974 108.74429 1.5971625
45.784069 108.98582 1.9435855
47.413815 108.6467 1.960678
112.73744 108.92683 1.57617
34.969048 109.26874 1.6218261
35.006485 109.36785 1.6257464
44.152542 109.39157 1.9188665
45.838737 109.04926 1.9447715
112.76968 109.39754 1.6140082
41.540932 109.62981 1.8603345
44.397186 109.99335 1.9283338
45.637726 109.90495 1.9473076
46.487385 109.88014 1.9575744
46.691559 109.86229 1.959601
52.207657 109.53278 1.955158
112.75443 109.73885 1.642693
44.296448 110.02837 1.9268006
46.096642 110.32288 1.9555379
53.04007 110.12131 1.9441313
108.8362 110.23556 1.813374
35.686668 110.75978 1.683849
36.964085 110.98135 1.7358569
37.25618 110.98283 1.7462639
35.766258 111.04529 1.6926622
36.134628 111.04994 1.7067155
36.8307 111.00102 1.7314135
39.862514 111.45842 1.8371478
39.107243 111.90842 1.8212568
39.548172 111.80107 1.8327094
40.271317 111.56384 1.8499672
41.490265 111.64983 1.8824128
41.665451 111.50456 1.8850554
42.516499 111.64476 1.9056565
54.23764 111.82121 1.9238341
39.254227 112.02438 1.8272029
40.724174 112.13033 1.8687807
41.193676 112.01109 1.8791455
40.593281 112.55112 1.8702818
45.149174 112.83115 1.9580935
45.967178 112.54483 1.965417
46.056023 112.54534 1.9662575
48.885117 112.7878 1.9795727
49.488682 112.97182 1.9789335
42.567337 113.22025 1.9206018
46.908455 113.4575 1.9763622
47.2094 113.26788 1.9772574
47.775951 113.2828 1.9794782
48.224575 113.30215 1.9804713
48.78582 113.09724 1.9802626
49.175858 113.18614 1.9800363
49.70993 113.16691 1.9785315
42.796555 113.95499 1.9306806
48.310715 113.75163 1.9817654
49.916847 113.81895 1.9787283
50.270275 113.7369 1.9766874
50.776806 113.81188 1.973323
51.69656 113.87022 1.9647905
52.282146 113.77654 1.9576725
52.659317 113.90402 1.9526033
42.845394 114.32324 1.9342974
43.106525 114.30888 1.9385414
44.287487 114.48514 1.9568304
51.257824 114.23364 1.9696227
51.729042 114.272 1.9648114
52.865463 114.14119 1.9497505
43.222893 115.16641 1.9462808
57.316467 116.37849 1.8516414
57.824184 116.20513 1.8359438
58.641987 116.98224 1.8112587
53.639748 117.40674 1.9393474
65.492447 117.44476 1.5211662
55.815037 117.94086 1.8940157
56.137501 117.9776 1.8860842
57.965168 117.64955 1.8343242
58.306843 117.9182 1.82416
55.356209 118.233 1.9051309
55.738983 118.03094 1.8959382
56.362907 118.19676 1.8805789
56.535809 118.42549 1.8763536
55.136639 118.70739 1.910519
56.652313 118.54519 1.8734232
57.205963 118.82069 1.8586191
57.673439 118.804 1.8451283
59.411293 118.73326 1.7894753
59.693348 118.60173 1.7792654
65.767975 118.91361 1.5184467
56.877083 119.12794 1.8681535
57.967052 119.01857 1.836769
58.083679 119.05068 1.833285
58.87418 119.02271 1.8082038
64.298607 119.4211 1.5933682
64.712448 119.27185 1.5728778
65.238136 119.08885 1.5461603
54.99966 119.9456 1.9145855
55.105042 119.91553 1.9122781
58.775803 119.97192 1.8134323
62.952789 119.95994 1.6565481
63.261211 119.83006 1.6425108
63.777657 119.62634 1.6184578
64.086487 119.50772 1.6037258
54.857307 120.20645 1.9178303
58.939175 120.26357 1.8087915
61.871765 120.45045 1.703385
62.237976 120.28522 1.6879075
62.691437 120.07204 1.6681656
60.844868 120.95845 1.7445636
61.207794 120.78452 1.7303865
61.620071 120.58781 1.7138314
59.679924 121.17269 1.7863618
60.637623 121.06867 1.752488
83.173035 121.91562 1.98453
83.756912 122.10403 1.9633727
53.218693 122.86981 1.9504472
53.711777 123.23188 1.9422716
54.06797 123.44809 1.935991
53.300293 123.57289 1.9496316
54.372272 123.71859 1.9304038
54.623894 124.13158 1.9257826
84.806198 30.735701 2.0537288
83.740067 31.287519 2.0337088
84.016563 31.494736 2.0426617
84.957397 31.170193 2.0624185
85.051064 31.476906 2.0683174
85.245621 31.822382 2.0773573
87.473289 32.760036 2.1499453
84.44294 34.179123 2.0844345
84.817719 34.432121 2.0975409
85.264908 34.318829 2.1082768
85.72274 34.405437 2.1220629
86.85186 34.240658 2.1519628
87.185211 34.318703 2.1627495
87.237938 34.869278 2.1719432
87.406189 35.651798 2.1881285
87.64431 35.903988 2.1990638
87.796127 36.276581 2.2092812
88.070656 36.458824 2.2206149
88.239548 36.770035 2.2307339
88.5224 36.928181 2.2422523
89.56279 36.771706 2.2737794
88.709106 37.238441 2.2532163
89.586044 37.318871 2.2835135
89.761375 37.642807 2.2948236
90.214523 37.764328 2.3123512
90.444656 38.009235 2.3245273
90.797775 38.640404 2.3480821
91.84481 39.055264 2.3935027
90.225479 40.83289 2.3676343
89.215103 41.472332 2.3428655
89.796257 41.049122 2.3560548
89.350227 42.804489 2.3727417
89.695419 42.860912 2.3866735
90.28717 42.775196 2.4072945
91.249695 43.229591 2.4535265
89.986687 43.803986 2.4163747
90.325974 43.708385 2.4274936
91.277275 43.673676 2.463896
91.766602 43.890667 2.4879606
44.904869 46.281075 2.1047797
38.855984 49.944725 2.362114
40.531353 49.92709 2.2861104
38.911633 50.491348 2.3628612
39.182491 50.417236 2.3497119
39.836075 50.549522 2.3203993
45.89032 50.612675 2.0820093
38.898216 51.265514 2.3683825
39.035347 51.209442 2.3615022
46.604988 51.166603 2.0600019
81.328468 51.136631 2.2363238
47.270454 51.500999 2.0399227
39.071342 52.111355 2.3655701
43.229111 52.21814 2.1836071
45.285942 52.336636 2.1069617
45.031784 52.698311 2.1170266
46.457973 52.89072 2.068428
46.649078 52.864464 2.0621424
47.075653 52.729126 2.0482621
44.855179 53.369198 2.1254282
46.14666 53.301411 2.0797429
47.356239 53.243835 2.0405235
48.321301 53.296341 2.0118783
48.538727 53.05024 2.0053301
44.224503 53.948917 2.1510234
47.874557 53.699558 2.0256057
48.098938 53.506889 2.0186386
39.296371 54.152557 2.368417
42.791222 54.432816 2.2105794
41.947346 54.715988 2.2482133
42.281391 54.910172 2.2345815
40.146202 55.443829 2.3357661
42.446716 55.037907 2.2280474
42.605026 55.126339 2.221663
44.274097 55.12532 2.1532972
44.839092 55.36525 2.1323895
45.327236 55.349888 2.114156
39.646229 55.867699 2.3632867
43.302948 55.707443 2.1948071
43.937462 55.765446 2.1690583
44.817768 55.774845 2.1345797
45.111992 55.716057 2.1232691
39.414471 56.284664 2.3780308
39.541645 56.105549 2.3702612
43.130463 56.190323 2.2042291
46.230179 56.129612 2.084084
46.565876 56.011906 2.072135
38.259769 56.877922 2.4431219
39.187832 56.543243 2.391609
43.801418 56.587849 2.1779606
44.193081 56.670227 2.1623728
46.374847 56.531532 2.0800331
39.166332 57.404301 2.3996804
42.348495 57.395954 2.2445126
38.825054 57.736187 2.420526
42.092567 57.734371 2.2580965
42.686085 57.672684 2.2308712
37.49881 58.367493 2.4993558
37.572205 58.119141 2.4926739
38.316059 58.410465 2.4541879
38.577339 58.266899 2.4385715
38.285973 58.886711 2.4604793
38.516857 58.553116 2.4445295
92.832428 71.888458 2.005671
92.790154 72.152008 2.0220599
92.28875 72.7714 2.048063
92.399803 73.293274 2.0871427
92.335266 73.784203 2.1187797
34.134895 74.248222 2.2005603
92.272835 74.190659 2.1448543
92.761894 74.39109 2.1746781
92.902748 74.81488 2.208952
38.184738 75.050049 2.0146017
93.151222 75.193321 2.2438085
38.232944 75.626976 2.0423148
93.220619 75.705093 2.2824981
93.532791 75.97995 2.3125324
93.844864 76.266678 2.3436155
43.225121 76.604332 2.3925545
94.290215 76.594101 2.3822713
94.566307 76.822205 2.4082029
94.739555 77.083656 2.4332199
95.246086 77.172173 2.4568725
95.580025 77.235153 2.4728427
96.514893 77.132179 2.4969563
42.339798 78.237396 2.4965963
39.918015 78.917755 2.125726
45.448307 79.598137 2.2935078
37.035618 80.394073 2.3890944
46.329361 80.401215 2.246551
37.914963 81.275597 2.3897314
38.057278 81.15226 2.3728371
46.813488 81.888733 2.2426703
47.395927 83.928581 2.2501812
47.701084 83.976067 2.3617377
48.032501 83.885208 2.4611351
38.528553 84.242409 2.0043058
39.342709 84.168419 2.4915001
39.694553 84.331604 2.479722
47.663559 84.113434 2.300633
48.032665 84.030304 2.4613717
38.998009 84.88858 2.0422146
39.225372 84.761032 2.024044
44.599335 84.88385 2.1976266
46.880657 84.782501 2.1406059
47.308342 84.64592 2.0168009
47.568634 84.652199 2.0019341
31.266941 85.055412 2.3167589
31.524925 85.025803 2.3055055
39.31971 85.277023 2.0638185
40.723602 85.374245 2.4860229
44.468578 85.448822 2.2434814
44.599995 85.236763 2.2207975
47.410866 85.333794 2.0504251
47.83651 85.358078 2.1915896
48.250648 85.358299 2.2714558
48.580715 85.277351 2.1937392
37.353745 85.948456 2.1865115
37.709209 85.908691 2.1711268
38.331619 85.743752 2.1361973
38.788288 85.555893 2.1050024
39.262802 85.549217 2.0884876
40.703167 85.510956 2.4974079
47.250801 85.684616 2.1163051
47.935509 85.8293 2.430038
48.256954 85.712845 2.3313022
48.505226 85.630249 2.2121701
37.34399 86.063293 2.196578
41.427612 86.038498 2.4877503
43.255196 86.43576 2.3941092
47.80788 86.238174 2.2837377
48.272053 86.132072 2.2527132
43.36829 86.522568 2.3929489
43.821201 86.806099 2.3836637
44.025108 86.904449 2.3772411
47.907188 86.773605 2.3176265
48.086815 86.793999 2.301326
33.416718 87.422813 2.4467988
43.873283 87.29882 2.3558383
44.015747 87.300804 2.4083097
47.883537 87.20092 2.3434274
48.154781 87.211319 2.1513474
65.567657 87.481171 2.2183616
32.717278 87.719597 2.496439
34.28273 87.772003 2.447576
41.607895 87.554939 2.1791253
43.774776 87.743568 2.3033278
65.221703 87.758263 2.2286851
33.860283 88.010307 2.4827304
34.177845 88.093544 2.4791446
34.786411 88.258842 2.4727905
43.712524 88.174637 2.1608143
64.953873 88.321236 2.2659328
65.060638 88.15081 2.2554061
34.834648 88.518547 2.4938607
42.229374 88.953674 2.2793224
48.180889 88.795479 2.3479092
64.981079 88.644943 2.2943892
65.052254 88.789452 2.3094392
45.773029 89.208427 2.2874889
46.293354 89.383377 2.3736503
46.605042 89.34198 2.2807832
47.099384 89.244957 2.2834301
48.253929 89.307709 2.4063032
48.557613 89.39389 2.3187613
65.262321 89.136284 2.3471901
65.693436 89.329994 2.3798039
46.141472 89.633377 2.2057552
46.752522 89.794617 2.4303374
47.161667 89.524467 2.3770258
47.838928 89.90947 2.3089321
48.210121 89.614304 2.3343589
48.503384 89.59037 2.4600537
65.042801 89.96566 2.0009992
35.965652 90.328163 2.0065708
42.294243 90.474503 2.2189095
47.713943 90.016205 2.3848548
48.267029 90.181381 2.3629866
48.516453 90.089493 2.3368678
65.281982 90.064674 2.0100524
42.297691 90.560654 2.2650223
42.94455 90.682457 2.0427363
43.068539 90.703529 2.4069352
24.194342 91.37751 2.0880945
24.87648 91.324997 2.0840893
25.00246 91.124931 2.0667939
45.695614 91.221275 2.3655312
67.94104 91.454941 2.137495
75.802406 91.427551 2.1408598
76.239586 91.148941 2.1161861
24.927357 91.516769 2.1007926
25.067762 91.658508 2.1132033
27.827986 91.70639 2.1195519
29.219398 91.511673 2.1038079
45.413517 91.685875 2.4182529
45.556744 91.567589 2.402405
67.84037 91.749977 2.1643116
75.396622 91.820557 2.1759701
75.545876 91.670326 2.1625254
67.466354 92.400139 2.2237
67.696983 92.163445 2.2020581
75.375336 92.196449 2.2099438
75.573753 92.458755 2.2338648
67.401352 92.537277 2.2363122
67.691284 92.712692 2.2526219
68.125275 92.927208 2.2726097
68.458282 93.094246 2.2881808
17.017311 93.813698 2.293071
48.735878 94.428398 2.0963416
0.29049301 94.818001 2.3669872
17.636604 94.805763 2.3785746
49.46217 94.828865 2.1263075
49.566212 94.864845 2.1292212
17.655413 95.249031 2.4164417
17.599457 95.511864 2.4388096
72.20298 98.238091 2.0383008
72.749443 98.09185 2.0087135
72.125145 98.76622 2.0833282
72.065285 99.272797 2.1258442
47.902115 99.897224 2.3276775
48.428829 99.794853 2.3267436
66.348602 99.978004 2.359885
66.694305 99.965637 2.3484786
72.083969 99.706802 2.1598878
46.253357 100.24541 2.326997
50.229015 100.16203 2.3436913
65.429123 100.47793 2.4256353
65.708008 100.22734 2.3982089
66.091301 100.02305 2.3710954
66.804482 100.00326 2.3480477
67.119888 100.05931 2.3428006
77.886765 100.12526 2.0058665
41.890827 100.51202 2.2673714
42.018078 100.62203 2.2755885
50.846619 100.97432 2.371264
65.307648 100.76147 2.4507902
65.273552 101.21533 2.4862492
28.808537 102.48499 2.0393491
26.56451 102.98105 2.0040345
28.823223 102.5873 2.0462391
32.252525 102.78219 2.1560504
26.706291 103.18658 2.0214188
27.116322 103.04436 2.0246048
27.77849 103.38477 2.0656822
30.411556 103.30018 2.1360769
30.50395 103.35833 2.1421914
32.454781 103.24771 2.1891747
33.747795 103.41122 2.2328324
26.461428 103.6356 2.0426922
27.94409 103.51704 2.0787988
28.241043 103.70148 2.0988488
28.799761 103.88895 2.1263967
29.222338 103.9165 2.1400509
30.078426 103.73428 2.153019
32.283615 103.67384 2.209583
33.835381 103.76028 2.2549186
31.941475 104.49648 2.2483087
33.927917 104.16646 2.2802284
34.113434 104.29421 2.2919662
30.998638 104.93744 2.2491035
31.731861 104.53326 2.2449551
32.420696 104.70978 2.2728798
32.54528 104.89327 2.2864523
30.382877 107.74381 2.3920872
32.829697 107.54067 2.438256
33.055496 107.78705 2.4563215
33.950531 107.97557 2.485446
34.170517 107.6336 2.4724207
30.459122 108.14951 2.4162073
33.054466 108.11934 2.4737446
34.034615 108.0246 2.4897375
25.166269 108.91618 2.3262651
29.228878 109.44958 2.4579637
29.170547 109.71809 2.4711699
29.626366 109.89307 2.4911392
28.937622 110.05503 2.4839671
29.122478 110.04305 2.4876089
93.827812 112.57191 2.4902337
94.227386 112.51865 2.4732738
71.286339 120.45073 2.4864433
71.756317 120.3995 2.4639921
72.241043 120.34274 2.4403696
72.730118 120.29607 2.416724
73.232178 120.26138 2.3927283
73.757652 120.24042 2.368012
74.204979 120.2099 2.3461721
74.745544 120.19263 2.3203745
75.293602 120.19302 2.294749
75.792923 120.19083 2.2710383
76.295387 120.2125 2.24805
76.823921 120.24287 2.2239935
77.26207 120.25287 2.2031825
77.72049 120.29885 2.1828978
78.277832 120.34159 2.1574211
78.779045 120.40689 2.1356046
79.272346 120.45203 2.113054
80.360443 121.19099 2.0936441
80.816505 121.28059 2.0748286
81.276047 121.37779 2.0561006
81.812843 121.53235 2.0361025
82.326324 121.65666 2.0157156
82.735016 121.77602 2.0004191
92.348503 43.842419 2.5103021
93.022804 44.335854 2.5489087
92.029678 45.150425 2.5263538
95.091858 45.485229 2.6645193
91.96756 45.832813 2.5392895
92.993454 45.908772 2.5842137
95.240143 45.588722 2.6736307
92.143433 46.09005 2.5525808
92.818092 46.399727 2.5884466
94.733948 46.428825 2.6725235
95.725983 46.039143 2.7066817
92.942032 46.563725 2.5977015
93.332001 46.591774 2.6152096
94.786324 46.686279 2.6814141
96.463371 47.64959 2.7832851
96.647842 47.761166 2.7949581
96.845459 48.290016 2.8190761
96.977844 48.57819 2.8335452
97.212608 48.643387 2.84659
97.017212 49.10453 2.8506255
35.885727 54.034378 2.5460949
91.580803 54.349308 2.7430234
91.410843 54.733517 2.7461491
90.718254 55.584133 2.7378707
90.377243 56.238235 2.7408781
90.385666 56.68924 2.7549775
90.537979 56.897514 2.7688918
90.268181 57.35614 2.7697434
90.380173 57.594791 2.7828093
90.606995 57.835228 2.8018208
37.404484 58.434074 2.5054011
90.651268 58.35133 2.8207157
37.269638 58.703083 2.5159786
90.968323 58.523598 2.842536
91.237251 58.740284 2.8635941
37.374058 59.399078 2.5175419
91.396751 59.04528 2.8821297
91.583946 59.316555 2.9011965
92.020714 59.416828 2.9276228
92.119072 59.651161 2.9410596
37.476974 60.332672 2.5220656
91.997696 60.060875 2.9491262
92.350159 60.017876 2.9664159
92.596298 60.15181 2.9844604
37.297512 60.580467 2.5355835
35.085304 61.445641 2.6845822
35.79813 61.494972 2.6396132
37.467144 61.44738 2.5358706
33.178314 61.657677 2.8150213
34.7341 61.522419 2.708638
35.015907 61.539345 2.6905046
37.595268 64.721924 2.5716724
32.554363 65.333206 2.9323254
31.965044 66.143196 2.9953985
32.140488 66.092758 2.9808521
37.359505 66.479942 2.6144943
37.388916 73.81237 2.7694874
38.220428 74.864517 2.7321749
105.58807 75.179703 2.6606293
108.77063 75.240799 2.7741385
112.06397 75.276382 2.890172
105.64919 75.552666 2.6906257
107.78407 75.891663 2.7894514
112.01285 75.611496 2.913969
43.258141 76.407333 2.9571509
43.777576 76.447319 2.9092858
111.98418 76.474968 2.9792776
112.01012 76.255524 2.9632683
40.446198 76.861069 2.609535
42.842724 76.699944 2.9942887
43.081158 76.685318 2.971714
43.619267 76.559891 2.9226291
98.592743 76.889626 2.5496264
108.94403 76.526566 2.8778596
109.71728 76.556221 2.9069057
112.03956 76.676521 2.996769
40.321564 77.292786 2.6318479
97.061554 77.143051 2.5163479
109.37513 77.65255 2.9796925
41.843769 78.051865 2.530839
42.240852 78.324585 2.5067234
42.906525 78.135162 2.9832985
42.798618 78.500275 2.9943037
43.28051 78.725311 2.9451394
42.262856 79.217026 2.5301411
39.585503 79.557518 2.7700582
45.665897 79.553604 2.7090039
46.300659 80.391129 2.6434827
43.891945 80.829224 2.8876693
46.845203 81.872353 2.6978977
45.535603 82.556969 2.7214391
44.436146 83.735268 2.8685009
38.847137 84.333488 2.5361047
39.160614 84.247391 2.5091367
47.253696 84.281044 2.5475683
47.560112 84.19249 2.5127516
38.864201 84.614502 2.5551834
40.457954 85.438568 2.5085554
44.545715 85.478523 2.9108448
47.8703 85.379333 2.7279527
48.003632 85.340813 2.7085762
40.411964 85.623138 2.7591558
44.447422 85.632431 2.9301586
44.529358 85.541504 2.9155726
46.963543 85.819603 2.8687463
47.144039 85.741394 2.716151
47.892281 85.552437 2.7245464
15.934021 86.361191 2.9511795
42.787037 86.171021 2.7910147
43.255585 86.322922 2.7534337
47.337673 86.168091 2.6585553
47.703346 86.42009 2.5397131
43.224579 86.543442 2.7709379
44.235287 86.928932 2.6938062
47.567177 86.61734 2.5642774
28.546843 87.241379 2.5972087
43.886456 87.116646 2.7423427
44.403786 87.334579 2.7046335
41.959282 87.772507 2.5870624
43.431732 87.757881 2.8359396
43.540764 87.876671 2.8337543
44.325657 87.619995 2.7331638
33.785843 88.376198 2.5172324
43.388592 88.110222 2.5162899
43.590622 88.211472 2.6833181
44.140381 88.248238 2.8004432
48.343262 88.295776 2.7605155
48.717125 88.296822 2.8284564
30.946711 88.910416 2.6611552
32.627743 88.790253 2.5931268
33.338226 88.666275 2.5579529
34.734699 88.608574 2.505167
40.45689 88.83033 2.7802844
42.378311 88.832367 2.6473207
43.284485 88.942696 2.7102005
43.773731 88.667778 2.6962802
48.240665 88.760864 2.8243415
48.642155 88.541458 2.6562073
33.26823 89.256714 2.6123328
34.255966 89.023216 2.5579739
36.331032 89.340248 2.5150185
43.653149 89.034668 2.9170039
45.965714 89.003693 2.6724026
46.206306 89.24752 2.6686618
46.601421 89.252716 2.7227921
47.212868 89.128311 2.6602263
47.871975 89.049858 2.864608
48.317108 89.251694 2.7904291
48.618164 89.276016 2.7863882
47.836456 89.855003 2.7298625
48.245159 89.7173 2.7765899
48.513123 89.554832 2.973567
45.74527 90.306473 2.6834102
47.794739 90.071106 2.5815299
48.350845 90.116493 2.6914196
48.518124 90.074898 2.5649083
35.928844 90.892097 2.6671689
36.051449 90.840782 2.6583688
45.796902 90.81942 2.68594
46.087894 90.896454 2.8447912
76.602356 90.939301 2.9173274
27.842293 91.248657 2.975071
28.291821 91.079437 2.944561
31.59306 91.064468 2.8305559
45.473885 91.4244 2.8222144
45.749908 91.236 2.7558703
67.959221 91.431694 2.6557186
75.808197 91.428429 2.9343996
76.237434 91.150017 2.9237926
31.415115 91.502106 2.8759851
31.923677 91.52063 2.860321
45.433971 91.703674 2.7095959
45.587692 91.605423 2.888948
47.313004 91.839661 2.8319829
67.86058 91.754456 2.6835465
75.35321 91.925926 2.9650593
75.538788 91.670944 2.9475651
38.35675 92.155128 2.6992896
67.456299 92.423615 2.7354927
67.673584 92.185394 2.7193396
75.414635 92.162941 2.9897826
67.420692 92.517296 2.7436504
67.711281 92.691437 2.7712002
68.143875 92.904358 2.8075855
68.390198 93.021156 2.827872
68.601044 93.130829 2.8462281
72.203026 98.252449 2.7740922
72.724731 98.05291 2.7545822
73.111343 98.02298 2.7514625
72.080849 98.757301 2.8226836
72.107704 99.269646 2.8720353
47.902599 99.8825 2.7452562
48.461327 99.761292 2.7314274
72.12706 99.661903 2.9099252
46.210068 100.1661 2.7793458
50.257153 100.13519 2.7391634
26.589958 100.85751 2.8852303
30.052282 100.72305 2.8717227
41.936878 100.59219 2.8349557
65.342117 101.49524 2.505466
-5.7272758 101.79395 2.9590445
-5.4249153 101.94327 2.9718101
9.7636642 101.86215 2.9702253
18.069696 101.82201 2.9670994
65.43177 101.67298 2.5163252
-13.76384 102.23002 2.9918094
-5.3682976 102.14484 2.9888613
9.7122765 102.04167 2.9851677
35.167423 110.26688 2.6234114
32.386314 110.65322 2.5900912
32.712692 110.76206 2.6020372
43.437271 110.94668 2.7513638
29.877604 111.45391 2.579124
32.739956 111.18365 2.623646
42.834183 111.43665 2.767956
43.271133 111.1032 2.7567987
43.643459 111.09048 2.7581303
32.68153 111.7123 2.6487687
43.682968 111.6293 2.7798586
33.635986 112.3769 2.6984491
39.076324 112.18375 2.7675946
92.874634 112.48364 2.5135255
28.232962 112.85802 2.6168871
33.667427 112.75282 2.7170105
92.490372 112.90449 2.559051
92.758942 112.60069 2.5264802
93.580856 112.71053 2.5090985
33.714359 113.28672 2.7432258
33.721439 113.79844 2.7675164
37.851154 113.96906 2.8317947
40.648399 113.83656 2.8521411
92.978546 113.86368 2.6194642
93.200386 113.80952 2.6081886
33.709438 114.25313 2.7886696
34.671371 114.07234 2.7949576
38.028305 114.15695 2.8419023
40.269604 114.14474 2.8620973
40.947033 114.08115 2.8643343
47.373169 114.33839 2.8825016
47.681751 114.32642 2.8805466
92.994148 114.0651 2.6348722
93.1549 114.45099 2.660249
33.749577 114.65061 2.8078327
37.980034 114.5218 2.8571868
38.27039 114.74997 2.8699615
39.734055 114.61687 2.8775678
43.214554 114.65688 2.8981838
43.764557 114.67783 2.900228
44.203243 114.9796 2.9125071
47.70105 114.50156 2.8869205
92.931374 114.88799 2.7016845
93.140854 114.72956 2.6826425
38.759533 115.24647 2.8957286
40.483063 115.26535 2.9099092
40.57222 115.31338 2.9124517
44.322975 115.0701 2.916081
48.420269 115.30902 2.9121342
48.725971 115.18454 2.9053636
33.794521 115.72079 2.8579233
39.473663 115.89365 2.9287617
47.783936 115.88586 2.937366
48.163803 115.68336 2.9275727
48.918247 115.71933 2.9233336
33.805149 116.29504 2.8843102
41.844116 116.42477 2.9636874
44.841324 116.29056 2.962687
45.180832 116.18898 2.9583974
50.963974 116.33656 2.9249175
51.241932 116.35919 2.922266
51.663933 116.41572 2.918776
33.845779 116.63854 2.9004879
40.238564 116.58246 2.9622424
41.777924 116.58755 2.9699035
42.187481 116.74101 2.9773376
44.357773 116.8206 2.9832418
44.601826 116.55466 2.9729509
51.898033 116.65321 2.9240608
53.272697 116.63025 2.9022479
53.515556 116.60474 2.8972676
54.475716 116.93687 2.8918779
91.844719 116.82972 2.8876095
92.305519 116.75795 2.8677638
41.112137 117.3643 2.9982324
42.496071 117.02004 2.9891667
42.62558 117.1255 2.9935822
44.096054 117.1305 2.9951835
54.199089 117.36305 2.9122241
91.19059 117.14871 2.9326134
91.66861 117.09611 2.9138107
33.501091 117.53005 2.9361191
91.072021 117.89667 2.9943743
97.642487 118.37807 2.8285875
96.779411 118.79585 2.888298
97.361633 118.63454 2.8575037
96.569 119.09526 2.9182878
70.944427 120.48343 2.50243
68.425934 120.97449 2.6257308
68.736305 120.89487 2.6102288
69.222382 120.79267 2.5866034
69.730057 120.70122 2.5622001
70.235107 120.60905 2.5375144
70.687225 120.52622 2.5151129
59.672646 121.49504 2.936574
67.909622 121.17076 2.6537464
