# .PCD v0.7 - Point Cloud Data file format
VERSION 0.7
FIELDS x y z
SIZE 4 4 4
TYPE F F F
COUNT 1 1 1
WIDTH 1611
HEIGHT 1
VIEWPOINT 0 0 0 1 0 0 0
POINTS 1611
DATA ascii
49.60894 105.16337 5.2163448
106.69492 105.24368 5.2108135
47.235989 105.66611 5.0643277
47.637455 105.8562 5.0698156
48.1474 105.85342 5.1066194
106.41243 105.79567 5.2621393
106.54425 105.5155 5.2356491
35.839565 106.31033 5.1682191
36.282978 106.43591 5.1425338
48.213757 106.05554 5.0651574
106.17841 106.244 5.304111
36.251183 106.54247 5.1589022
36.624813 106.79492 5.1562419
105.89776 106.78208 5.3549666
-1.1147614 107.44549 5.2728033
-0.22839355 107.01089 5.2028747
36.784374 107.18439 5.1911278
37.225174 107.26569 5.1613731
37.562622 107.46063 5.1559095
105.6616 107.2236 5.3969092
-1.0856438 107.82652 5.30408
-0.98324585 107.60323 5.2813091
23.944069 107.77638 5.4272304
37.18787 107.50424 5.1953731
105.40079 107.77486 5.4508514
105.52394 107.50275 5.4239759
-1.0547562 108.20826 5.3353019
23.929985 108.46655 5.4961281
105.21147 108.13004 5.4852591
-1.4611588 108.91933 5.4106712
24.016928 108.54107 5.4974403
-1.3441467 109.08221 5.4200716
49.884895 109.89709 5.1644015
50.119301 109.85201 5.1426244
13.808134 111.84141 5.0766072
13.948393 112.08979 5.0914912
14.070709 112.27012 5.1014862
43.711517 112.99261 5.4050465
42.985809 113.24178 5.4925861
43.265259 113.14072 5.4580741
43.779724 113.0608 5.4097171
44.244473 113.25584 5.4039721
44.610626 113.43585 5.4035807
44.883099 113.57379 5.4041233
45.259163 113.7586 5.4044695
45.632591 113.9437 5.4054146
40.54789 114.48206 5.0091438
45.879486 114.05764 5.4050751
46.221104 114.24163 5.4086566
53.462879 114.40205 5.0216236
53.51722 114.29943 5.0044222
54.111572 114.46483 5.0001316
39.250908 114.90905 5.1347198
39.770363 114.72864 5.0833564
40.276131 114.56396 5.0346017
46.47234 114.54016 5.434617
46.758614 114.6623 5.4335628
47.220886 114.88705 5.4361916
53.312851 114.72496 5.074821
54.339111 114.68058 5.0203605
54.647385 114.89352 5.0366311
12.697601 115.06573 5.3817053
38.492718 115.48788 5.2430601
38.795872 115.20753 5.1945782
42.170853 115.42024 5.0093417
47.476551 115.00352 5.4367623
47.620853 115.0743 5.4378967
48.797119 115.42426 5.4167452
52.967392 115.45241 5.1953149
53.094807 115.17702 5.1498151
55.441696 115.27556 5.055685
55.774578 115.32645 5.0485783
56.209034 115.43274 5.045238
36.900669 115.70342 5.3660078
37.233025 115.60399 5.3345461
37.721478 115.67184 5.3108454
38.232056 115.59185 5.2703385
42.290241 115.69524 5.0313416
48.985867 115.50338 5.4169397
49.178421 115.60558 5.4203153
52.797253 115.71426 5.2410712
56.43541 115.51559 5.0475197
56.727833 115.66791 5.0570135
57.217827 115.90532 5.0706863
42.329079 116.20717 5.0834179
52.451591 116.38281 5.3537664
52.595383 116.14209 5.3121738
57.669685 116.11996 5.0830131
42.432709 116.54643 5.113265
51.785778 116.87325 5.4579611
52.213932 116.82513 5.4290009
58.473713 116.53853 5.110817
58.729046 116.6311 5.1141911
59.229881 116.87589 5.1299081
44.43541 117.44516 5.0902395
44.559727 117.49159 5.0879197
52.122959 117.03178 5.46315
59.739975 117.11523 5.1448336
60.215984 117.35217 5.1609459
60.514542 117.48563 5.1690693
44.320999 117.51776 5.1047029
60.764973 117.61106 5.1778502
61.198647 117.80848 5.190464
61.52652 117.98103 5.2033491
21.266817 118.48869 5.3130426
61.791645 118.11051 5.2124686
62.256622 118.32714 5.2271819
62.600403 118.49642 5.2394381
21.355764 118.59121 5.3174248
21.60676 118.7261 5.3176904
28.232424 118.83612 5.0498791
62.81065 118.59618 5.2464762
63.093353 118.73341 5.2564287
24.428764 120.34854 5.3266091
25.192635 120.11848 5.2768221
21.159086 120.8008 5.4976521
22.968807 120.79511 5.4221067
23.908052 120.60735 5.3683739
92.415405 120.98029 5.0100908
91.992355 121.32423 5.0556459
92.113022 121.08104 5.0252929
91.907417 121.67712 5.0988531
98.678017 121.81286 5.0476165
104.5936 121.93706 5.0124512
98.335228 122.45407 5.1259527
103.61369 122.24603 5.0557623
104.47878 122.35725 5.0616307
76.852783 122.77295 5.456399
98.161438 122.67195 5.1532283
103.33374 122.93037 5.1371622
97.446335 123.29634 5.2339716
97.774994 123.20432 5.2198133
98.074722 123.12207 5.2071505
97.275421 123.64029 5.2765055
96.417625 125.25166 5.4782634
78.411041 29.373314 5.8681269
78.26899 30.265564 5.8180866
78.416656 30.51812 5.8056965
78.694359 30.766375 5.7950029
79.180519 30.839344 5.7963047
82.981705 31.485535 5.8202314
79.717484 31.916971 5.745636
80.438881 31.770569 5.763278
80.552551 32.047859 5.7505445
82.408195 32.042557 5.7817192
80.782219 32.902885 5.7100687
81.321075 32.869949 5.7207193
81.803909 32.697079 5.7378941
97.921112 40.713482 5.9915581
98.262619 41.386784 5.9913225
98.389488 41.607285 5.9922838
99.234016 44.200665 5.9766517
99.437569 44.837082 5.9746003
99.648651 45.285664 5.9776239
99.699539 45.877701 5.9688468
100.20973 47.177235 5.9757147
43.575691 47.717201 5.7003407
100.14201 47.557281 5.9650335
42.982441 48.438473 5.7006001
43.247864 48.152348 5.6978874
41.383717 51.320549 5.6500063
42.607765 51.454563 5.5347252
41.670853 51.942257 5.5845413
42.342968 51.626221 5.5462189
42.648323 51.664253 5.517683
41.446396 52.271507 5.5834513
98.162048 69.65995 5.808188
39.325451 77.424423 5.806839
41.737045 79.229507 5.7839513
41.879902 79.760056 5.6853724
42.234985 79.659607 5.6269469
37.974636 80.479088 5.8314247
42.265396 80.15435 5.5551863
41.817734 80.850395 5.5599012
94.570961 80.820045 5.844811
94.447205 81.496559 5.865653
94.582596 81.220612 5.8653364
94.110306 81.915176 5.8535042
94.503769 81.651398 5.8789992
93.930191 82.280006 5.8544645
94.088425 82.240211 5.8681231
94.277298 82.746902 5.9137387
93.924194 83.378242 5.9130602
94.213364 83.15451 5.9295502
93.991867 83.519928 5.9277706
94.112617 83.807228 5.9562378
94.359207 84.068932 5.9961481
36.704071 89.713867 5.9471016
107.19816 89.874046 5.7280684
38.218853 90.214905 5.5387969
107.54099 90.258308 5.7836847
37.545868 90.645355 5.7498684
38.283184 90.770782 5.7833295
39.446739 90.679832 5.647275
106.08914 90.899994 5.7385139
39.441219 91.273567 5.6757331
39.78167 91.122482 5.558074
106.22229 91.279762 5.7802467
37.721046 91.562347 5.7534466
38.594955 91.671326 5.5091763
105.806 91.775375 5.7946444
36.652126 92.114403 5.5741897
105.7104 92.149612 5.8209
106.10265 92.443962 5.8738604
106.48284 92.622192 5.9158311
107.01791 92.996696 5.9861412
34.791504 93.716171 5.5991702
35.070648 93.624718 5.5302358
40.551434 93.883896 5.5281749
37.635933 94.201714 5.5221028
39.161453 94.258957 5.5817485
40.626713 94.325829 5.5577645
39.731628 94.938606 5.9310741
40.696266 94.62207 5.5739245
38.824646 95.007378 5.7716317
39.728096 95.229675 5.7797723
40.305813 95.243164 5.7893858
28.396486 95.882912 5.570919
30.939545 95.803131 5.9196372
35.775063 95.873352 5.6246414
39.298679 95.720024 5.7350726
39.741268 95.839821 5.6278081
40.092537 95.745964 5.5136633
35.771187 96.039871 5.6457696
38.748131 96.358093 5.6359644
39.242424 96.2062 5.8244553
39.816429 96.166725 5.6563869
40.014584 96.12413 5.5938845
38.813381 96.543869 5.6453767
39.262791 96.615051 5.8834453
39.765961 96.697029 5.7564597
27.992754 98.806931 5.9403095
28.121584 98.897141 5.9324017
28.178545 99.089027 5.9460969
40.8298 99.116119 5.9349051
41.074234 99.444984 5.9448442
33.815872 99.868965 5.9152393
40.942001 99.927086 5.6322293
41.116825 99.607216 5.5287371
33.973637 100.08173 5.9178219
34.17989 100.18568 5.8974776
34.572628 100.30222 5.8477035
35.382519 100.23797 5.7027516
35.292919 100.50755 5.7565451
35.867355 100.64823 5.6818018
36.027527 100.80071 5.6778831
40.779865 100.64997 5.8180065
41.60244 100.66351 5.6480594
45.756691 100.53738 5.521358
35.954575 101.06889 5.7299123
36.226791 101.25856 5.7140551
40.912376 101.23157 5.91539
41.083969 101.26254 5.8866858
37.049179 101.97211 5.6924987
41.579395 101.95898 5.9434524
45.841351 101.75315 5.6665626
46.061886 101.77845 5.8689127
56.93811 101.99232 5.5297818
57.239441 101.8746 5.5232019
37.223965 102.17633 5.6974554
41.661476 102.00506 5.9378986
42.189159 102.39131 5.9267645
46.714302 102.24726 5.9128647
54.050026 102.48607 5.5019693
56.358513 102.20451 5.5450182
56.907585 102.01493 5.5339832
57.44035 102.02698 5.5915756
31.449331 102.87302 5.9590683
31.571234 102.98245 5.9571447
37.198406 102.53234 5.7588243
41.76878 102.87463 5.6249523
42.388092 102.60299 5.9400787
45.837372 102.70857 5.8015318
46.105076 102.68097 5.7500305
47.079262 102.58565 5.9713483
51.66003 102.74174 5.5913372
54.02927 102.52683 5.5155983
55.424168 102.54649 5.5891285
31.664375 103.14941 5.9667311
32.418114 103.46155 5.9087071
41.825539 103.03585 5.6496363
42.000237 103.33614 5.6853657
46.232075 103.08913 5.8551688
49.250824 103.44601 5.598886
49.994297 103.34013 5.9022875
50.077938 103.1644 5.8315067
50.877323 103.41666 5.8724465
51.346336 103.42317 5.8525634
51.850365 103.17897 5.7458253
52.064095 103.07832 5.7032323
32.461884 103.52169 5.9110327
37.399208 103.69943 5.9207978
37.623787 103.82722 5.9084444
41.923073 103.76508 5.7896876
42.198948 103.69604 5.7315392
49.18647 103.60031 5.6548567
49.898098 103.87754 5.6862764
50.235229 103.66119 5.650126
50.784752 103.58893 5.8588772
51.277672 103.68604 5.8037004
51.515846 103.68834 5.5313153
32.948658 104.21498 5.9417977
33.061348 104.27476 5.935451
37.734009 104.11893 5.9416161
42.288929 104.10223 5.806211
42.529099 104.13504 5.7768555
44.603699 104.27058 5.9895363
43.841812 104.75867 5.7283077
44.099712 104.98007 5.7443542
43.934376 105.08124 5.7899613
44.358288 105.21192 5.7643166
44.699978 105.27538 5.7352943
45.276253 105.33714 5.6785564
45.965897 105.25681 5.5783272
46.188198 105.32111 5.5689158
48.475601 105.44599 5.8435297
48.516968 105.46746 5.8459024
36.273464 105.69846 5.7364402
44.838814 105.6936 5.8167238
45.237186 105.60007 5.745945
47.624645 105.81089 5.5414686
48.233715 105.7277 5.9467492
48.71756 105.67781 5.8884964
31.23955 106.42929 5.6246977
31.991673 106.49347 5.559001
36.366146 106.41685 5.8327703
36.625134 106.45814 5.8081679
31.257318 106.51746 5.6335411
32.049961 106.60078 5.5663152
36.682663 106.77954 5.8501601
36.676468 107.32368 5.9340138
37.06403 107.32253 5.8887744
36.903149 107.75938 5.9748898
37.030197 107.7948 5.965754
23.077366 108.0613 5.5155497
105.07264 108.38634 5.5101624
24.021538 108.66309 5.5091572
104.89321 108.74207 5.5453696
35.936653 109.45804 5.5601358
104.61166 109.27016 5.5975966
35.949596 109.66715 5.5860386
36.125317 109.88062 5.5980453
104.35928 109.80466 5.6519723
103.99579 110.49569 5.7219715
104.11146 110.22661 5.6938443
103.49155 110.94126 5.7598066
103.85809 110.76225 5.7493129
103.37312 111.19164 5.7860551
103.37618 111.69904 5.8465447
102.99859 112.3856 5.9181919
103.15954 112.13554 5.8926497
102.82658 112.73037 5.9550495
42.320492 113.46456 5.572804
42.705345 113.33598 5.5263686
102.65878 113.07279 5.9919367
40.764103 113.97088 5.7609663
41.236622 113.81221 5.7028017
41.73185 113.65974 5.6440797
42.079247 113.53899 5.6011748
39.264812 114.45535 5.9448133
39.727501 114.29671 5.8865423
40.229851 114.12274 5.8233047
40.513523 114.02202 5.787384
1.8939323 114.66087 5.7640915
38.916817 114.55839 5.9865828
39.026318 114.53738 5.9749794
53.370159 114.75244 5.8537426
53.757763 114.79236 5.8440785
54.094315 114.95076 5.8580914
53.117374 115.24133 5.9521322
54.350876 115.07988 5.8705511
54.73745 115.27199 5.8892822
55.728088 115.73454 5.9341078
56.152924 115.94078 5.9556007
56.440895 116.07527 5.9695148
56.778709 116.23714 5.9868841
31.728071 117.47066 5.8824797
32.195259 117.31435 5.8359303
32.550491 117.19028 5.8000193
30.774841 117.79707 5.9783649
31.283676 117.60041 5.9248405
20.856113 120.79181 5.5094585
21.231993 120.93622 5.5051517
21.416405 121.04901 5.5062695
21.552822 121.30562 5.5205021
18.216036 122.20763 5.728301
70.791748 123.04679 5.6264358
71.239799 123.26009 5.6438355
71.696182 123.48044 5.6620502
76.952873 123.49685 5.5483446
77.090759 123.35762 5.527545
71.950623 123.62003 5.6744795
76.740891 123.78647 5.590281
76.329796 124.27743 5.6627808
76.509773 124.05513 5.6300044
75.93441 124.78855 5.7381186
76.116234 124.57106 5.7057076
80.925598 124.95648 5.66154
81.240372 124.84306 5.6413717
80.659981 125.22761 5.7011948
96.327866 125.42577 5.5002179
80.543823 125.66307 5.7593951
95.734055 125.71532 5.5419316
96.152908 125.65857 5.5302629
102.76522 126.03253 5.5052166
92.981323 126.96263 5.7279549
93.083031 126.68341 5.6923437
90.992798 127.46931 5.8177266
91.091324 127.31181 5.7967863
91.741821 127.39874 5.7984829
92.766006 127.01884 5.73771
94.375198 127.33547 5.7556086
90.802711 127.54871 5.8303013
98.294533 41.009514 6.0029335
102.04012 46.765331 6.0963507
102.25269 47.227062 6.1027794
102.344 48.243126 6.0942063
102.46373 48.608086 6.0971889
102.5411 48.85228 6.0991802
102.67485 49.201824 6.1037974
102.82654 49.672371 6.1085467
102.97533 50.005692 6.1149826
101.59224 51.442677 6.0067339
101.65424 51.67067 6.0087337
101.9032 52.35741 6.0197496
102.05059 52.802441 6.0265312
102.19454 53.261414 6.033493
102.37735 53.822258 6.0430861
102.48096 54.158524 6.0487719
102.54463 54.390503 6.0522966
102.67506 54.711098 6.0604725
102.85587 55.269611 6.0719581
103.04156 55.821014 6.0845323
103.1945 56.256363 6.0954943
103.34407 56.685249 6.1066861
103.43314 57.019791 6.1136332
103.55585 57.343285 6.1234312
103.69816 57.778564 6.1352773
103.88898 58.17334 6.1512423
106.56931 58.434872 6.3639841
107.3196 58.360054 6.423604
105.15384 58.804665 6.2535954
107.45743 58.679157 6.4372215
107.51747 58.910732 6.4440527
104.30875 59.065762 6.1881371
107.65096 59.244473 6.4579606
107.80173 59.686699 6.4746904
107.90276 60.024445 6.4866247
105.02679 61.941647 6.2707615
106.46269 61.879898 6.3894377
103.53266 74.312157 6.4328966
102.72105 74.794296 6.3741331
38.262218 75.437592 6.1994877
41.268921 76.168472 6.2929811
37.202599 77.223328 6.2478971
41.259888 77.802048 6.0697227
99.642677 77.928352 6.2066841
39.896748 78.390587 6.2759671
99.706818 78.084511 6.219739
100.16199 78.229012 6.2703457
99.649124 78.848457 6.2486238
100.1469 78.51709 6.2819109
38.52314 79.136505 6.4987211
38.906967 79.726837 6.3450966
96.958939 79.809937 6.0306969
94.300049 84.312653 6.0045457
94.579758 84.488274 6.0432224
98.651848 84.358238 6.4471579
94.731598 84.702621 6.0715351
96.275406 84.649628 6.2244759
95.293274 85.136169 6.1552067
95.965836 85.264526 6.2316036
96.079315 85.486641 6.2573423
96.352722 85.683121 6.2979178
96.608482 85.876991 6.3366976
96.776779 86.005051 6.3623543
32.081825 86.658951 6.4242001
116.6324 88.757919 6.281456
35.752029 89.035133 6.1910763
116.71455 89.096527 6.3149843
35.48772 89.635544 6.288209
36.969372 89.67971 6.407198
37.132782 89.923447 6.3627062
116.83052 89.548523 6.3605347
37.71566 90.348999 6.1910667
116.97523 90.000374 6.4084358
117.11973 90.212212 6.4362841
34.022427 91.146561 6.162323
34.400528 91.594849 6.0999584
34.831886 91.833656 6.0097771
35.397324 92.507019 6.4964571
107.2166 93.191551 6.0173731
107.58221 93.388344 6.0603285
107.69569 93.585953 6.0861282
109.68402 93.793365 6.2416639
37.41209 94.41777 6.1053095
37.721962 94.206055 6.1569233
38.050419 94.278099 6.3932705
107.40336 94.261055 6.1282187
107.44314 94.556442 6.1584492
107.67262 94.857887 6.2024794
39.105644 95.099121 6.1568508
39.258488 95.74588 6.2040024
39.698051 95.769638 6.0666399
38.808643 96.418884 6.2951493
39.233719 96.277313 6.2983065
39.573181 96.153366 6.1691346
38.3862 96.997787 6.1910925
38.952381 96.723244 6.2247701
39.104794 96.700897 6.4119949
38.403637 97.037872 6.1928396
39.02837 97.025208 6.0167398
26.86095 98.296051 6.0426855
27.236713 98.862663 6.052496
41.257591 99.403473 6.3325887
32.735886 99.868271 6.0991297
40.709023 99.825111 6.121819
35.413303 100.30038 6.326509
35.541069 100.35431 6.3095818
41.363831 100.24445 6.2860332
41.545708 100.27768 6.475318
35.486008 100.60046 6.3604445
35.772034 100.68709 6.317874
36.113655 100.85655 6.2785301
41.269836 100.59201 6.1620207
41.824291 100.60844 6.4888687
21.305859 101.23508 6.0612926
35.899422 101.34319 6.4024982
36.400925 101.14817 6.2715726
36.592285 101.35236 6.2693863
40.908142 101.33151 6.4270916
41.680004 101.44793 6.276772
21.527775 101.61485 6.0776691
36.751675 101.66072 6.2924728
41.765697 101.69675 6.3209968
18.85647 102.2052 6.4200916
37.317341 102.27499 6.2953148
37.550415 102.4668 6.2868271
42.044369 102.1775 6.3837018
42.657761 102.15856 6.2464266
18.963631 102.53624 6.4435701
19.048943 102.69217 6.451046
36.808411 102.56099 6.4427261
37.561344 102.63606 6.3162079
42.325802 102.62061 6.4412651
46.928314 102.72076 6.04213
42.308498 103.19955 6.0995274
43.452438 103.4129 6.4338593
43.513058 103.17157 6.3534336
19.872686 103.93179 6.4970398
20.087233 103.97754 6.4796352
43.553711 103.7017 6.4974127
49.993904 103.92334 6.115984
50.233376 103.8224 6.0614958
20.189682 104.06186 6.478075
42.579189 104.30481 6.3259249
43.800888 104.32707 6.1290116
45.210175 104.07913 6.3185444
30.646767 104.69104 6.3063207
36.924934 104.97539 6.2094746
42.668839 104.73463 6.4196877
44.159225 104.79995 6.1974106
44.622707 104.72069 6.1065931
45.220787 104.8026 6.1403041
45.673416 104.80511 6.2498927
49.851917 104.56233 6.3610868
31.650318 105.39308 6.2718577
36.947208 105.07942 6.2240968
42.748589 105.06316 6.4903145
44.284367 105.33237 6.3200393
44.567333 105.44843 6.3097582
45.219849 105.14544 6.1358399
45.55864 105.00327 6.050766
46.864433 105.10547 6.3966069
48.214256 105.49887 6.3656034
48.777596 105.35927 6.2646732
8.1506062 105.8994 6.3588533
36.394035 105.7321 6.4189696
36.603886 105.72798 6.3872647
44.385422 105.59573 6.3756728
44.672977 105.57329 6.3282881
47.417034 105.93053 6.0861001
47.778202 105.76225 6.247673
48.309296 105.84971 6.3030796
36.627274 106.06268 6.4422517
45.985794 106.40761 6.3834801
46.254169 106.36578 6.339488
46.824642 106.36794 6.2741952
47.212395 106.24414 6.196784
47.554523 106.06333 6.1094375
46.427258 106.57542 6.3777046
46.576782 106.68533 6.3913636
14.331303 107.23914 6.0492387
23.366817 107.05777 6.4842353
33.324284 107.154 6.311348
13.707973 107.77583 6.1448526
14.07452 107.85391 6.1265368
36.927235 108.2442 6.0474062
36.51453 109.19479 6.2428503
12.019573 109.85934 6.4649038
12.557812 109.9449 6.4353647
30.207787 109.93301 6.1513205
12.437412 110.47936 6.4956636
30.196465 110.12354 6.1759729
15.435184 110.62047 6.2994032
42.417595 113.47522 6.3547802
42.756634 113.3628 6.3057418
43.269176 113.18317 6.2304482
43.779102 113.08849 6.1708975
44.257832 113.29073 6.1665535
44.631039 113.46179 6.1662517
102.4874 113.42018 6.029582
102.56966 113.24523 6.0104818
41.431919 113.80733 6.4999914
41.730324 113.70605 6.4556761
42.175404 113.55405 6.3897753
44.868343 113.57675 6.1675148
45.249294 113.75849 6.1696935
45.623966 113.94755 6.1742425
102.29617 113.75913 6.0659065
45.870647 114.05463 6.1745825
46.184299 114.21046 6.1789079
46.792927 114.23903 6.140069
47.147087 114.38682 6.1414456
101.92969 114.44157 6.1402044
102.0728 114.18826 6.1127062
37.786381 114.95557 6.1316986
38.234962 114.80195 6.0745072
38.663971 114.66034 6.0207162
46.408131 114.62314 6.2356315
47.428894 114.54317 6.1498199
47.532368 114.86588 6.2001619
101.75871 114.78357 6.1781597
37.332245 115.10533 6.1890187
37.529831 115.04486 6.1646862
47.568687 115.16169 6.2503252
49.24765 115.4213 6.1892552
101.41432 115.45509 6.2530842
101.5441 115.20239 6.2247872
34.970535 115.90826 6.4933376
35.278095 115.79953 6.4528961
35.709194 115.66883 6.3992348
48.767963 115.83043 6.2918129
49.297577 115.66083 6.2290163
50.198566 115.9131 6.2212706
52.858444 115.779 6.0598736
101.23592 115.81033 6.2932143
50.104198 116.493 6.3302889
52.618946 116.26437 6.1577249
57.179367 116.4306 6.008091
100.94036 116.40034 6.3604035
101.05892 116.13783 6.33008
50.345303 116.59956 6.3356757
50.715317 116.75628 6.3431678
51.250797 116.74738 6.3127632
51.788452 116.66854 6.2707944
52.287693 116.78079 6.2659283
57.433773 116.5481 6.0208364
57.745628 116.70623 6.0391722
58.060192 116.85808 6.0565324
100.70466 116.82346 6.4084411
58.881405 117.23771 6.1000543
59.223927 117.41375 6.1217232
100.31783 117.38396 6.4707952
100.54855 117.16017 6.4476881
0.34407997 117.77861 6.0797648
30.367859 117.94232 6.0199609
59.444832 117.51359 6.1334429
59.748833 117.6673 6.1525946
60.164806 117.86565 6.1769924
100.14848 117.61558 6.4965391
27.739817 118.43433 6.2432976
28.03751 118.4528 6.2255611
28.7943 118.47998 6.178565
29.227663 118.32455 6.134088
29.760672 118.14112 6.0802202
30.06391 118.04464 6.0504065
60.412838 118.00793 6.1958418
60.714413 118.13036 6.2102141
61.225243 118.3746 6.2412758
-0.22129822 118.6075 6.1693411
27.254564 118.59863 6.2922325
28.192764 118.63085 6.2336679
28.580164 118.54681 6.1995249
61.690701 118.60696 6.2716541
26.345709 119.29733 6.4241014
4.9331131 119.74993 6.0628448
5.173439 120.01601 6.0749693
5.6780224 122.42868 6.2491708
4.7812462 122.68147 6.3047533
85.977127 129.12891 6.1058035
86.247849 129.04086 6.0898752
88.882523 129.24518 6.0719557
89.154205 129.2494 6.0681505
83.986298 129.80505 6.228796
108.0874 60.444679 6.5067825
108.12648 60.684669 6.5129871
108.31474 61.224899 6.53585
108.43203 61.543213 6.5501938
108.5359 61.861645 6.5637045
108.67537 62.301899 6.5824413
112.14236 62.204323 6.8792324
108.86099 62.716686 6.6052017
109.24733 62.899597 6.6415911
109.3188 63.11866 6.6517143
104.30856 74.627571 6.5185938
39.409836 76.247162 6.6487937
38.533508 76.696991 6.7778921
38.472778 78.83194 6.543735
38.625103 78.764183 6.5160055
98.556519 85.896507 6.5368586
98.631439 86.054321 6.5551405
34.066757 86.932236 6.6120577
33.281723 90.008568 6.9341993
36.581043 91.420845 6.61411
36.868515 91.750076 6.5422068
35.263916 92.44931 6.5301676
35.338387 92.582802 6.5200186
35.490158 94.457794 6.6648765
36.385323 94.214218 6.9305067
111.27736 95.896904 6.5485191
37.468403 96.343369 6.8734455
111.45698 96.336914 6.6032705
110.97806 97.338036 6.66854
111.03253 97.142532 6.6529503
110.10439 97.898193 6.6646442
110.78044 97.637924 6.6848245
109.95474 98.206314 6.685442
110.18294 98.84819 6.7662125
32.714607 99.295013 6.7232122
33.444321 99.424034 6.5916224
33.603603 99.325569 6.544467
33.91824 99.689041 6.5339804
34.088898 99.89476 6.5303783
109.83648 99.528633 6.8126926
34.209755 100.28772 6.566721
35.283989 100.31271 6.9897156
40.824722 100.22913 6.6610503
41.45586 100.45427 6.5462518
33.281147 100.61475 6.8051281
35.916592 100.92799 6.9542646
36.188656 100.94807 6.8956752
40.856422 100.67222 6.7666359
41.193314 100.96979 6.7542753
36.311092 101.09216 6.894875
36.616085 101.27567 6.8604836
37.139565 101.36267 6.7595215
40.964321 101.15824 6.8663383
41.098972 101.24413 6.8536367
41.965839 101.21079 6.6180053
42.121082 101.40765 6.6341023
108.34978 101.37582 6.9074688
108.72952 101.12222 6.905817
37.321323 101.55856 6.7575097
37.540874 101.70297 6.7377043
40.55748 101.99921 6.6738129
42.424934 101.95631 6.717289
108.37569 101.8007 6.9552975
40.479866 102.00585 6.6935396
40.557053 102.13024 6.7065525
42.450695 102.02578 6.7314963
42.664871 102.01809 6.6775723
108.13641 102.16869 6.9793777
37.449924 102.65557 6.9523187
37.651379 102.5817 6.8934708
40.486393 102.51752 6.8200684
41.985184 102.74168 6.5461903
43.090805 102.82066 6.8220253
17.92329 103.21192 6.6238804
32.562012 103.1774 6.6029778
34.928654 103.15311 6.9048209
41.890675 103.30466 6.7178516
42.289009 103.24422 6.6185732
43.221073 103.16001 6.8990273
43.560284 103.33698 6.881012
44.153156 103.28029 6.7386026
44.530163 103.32564 6.677238
19.710545 103.86659 6.5069151
41.764259 103.55872 6.8133111
42.217514 103.81631 6.7909966
42.92894 103.59347 6.5866709
43.423229 103.68978 6.5186386
43.975109 103.6797 6.9045687
44.161583 103.67448 6.865118
44.936222 103.96564 6.8115644
45.110104 103.91287 6.7618499
19.948221 104.39156 6.5388327
20.020063 104.24368 6.5153599
37.168671 104.33692 6.7112265
41.638527 104.13499 6.9969025
42.316322 104.21063 6.8811531
42.814682 104.05331 6.7390652
43.658894 104.38808 6.6772509
44.778168 104.41544 6.8229408
45.338886 104.28912 6.8482795
45.583199 104.39717 6.8427086
46.233147 104.48625 6.7667141
46.851166 104.4287 6.6526194
37.241989 104.55458 6.7406273
42.329536 104.64088 6.9999018
43.877079 104.53742 6.6820021
44.635674 104.71268 6.6041794
45.192635 104.66001 6.7982278
45.794796 104.82586 6.955071
46.098511 104.52735 6.8024144
46.5509 104.509 6.7255278
48.827465 104.78912 6.5365753
18.213562 105.2175 6.8085275
36.771965 105.20871 6.952251
45.733429 105.02837 6.5287333
46.086655 105.4002 6.5938606
46.509274 105.01924 6.9109659
48.92622 105.11491 6.6452079
49.045387 105.04298 6.6074071
18.267008 105.71123 6.8567734
46.247978 105.5726 6.625701
47.242455 105.55187 6.9971285
47.885113 105.8428 6.5962567
48.244377 105.95022 6.7632055
48.539581 105.73334 6.9093475
45.982147 106.31589 6.895421
46.305836 106.33398 6.8579545
46.781334 106.32088 6.7931681
47.245522 106.35945 6.7494979
30.994413 106.86369 6.5613041
36.357098 106.78778 6.6091838
36.505783 106.98281 6.6223087
47.064293 106.50826 6.8183517
36.368248 107.01807 6.6483593
36.552338 107.03549 6.6250048
22.89189 107.9218 6.6312556
35.928185 107.90616 6.8697472
36.733589 107.85329 6.746305
23.93268 108.28971 6.5690775
35.932281 108.16298 6.9152384
36.034576 108.26353 6.9188442
36.886597 108.05559 6.7616611
37.064804 108.39654 6.7993908
4.3385258 108.81369 6.9065437
24.439266 108.66815 6.5625525
36.980045 108.65335 6.8582687
37.069771 108.77549 6.868536
4.3363075 109.17651 6.941359
11.844141 110.25865 6.5159144
12.191097 110.42863 6.5080271
40.335659 113.93582 6.62328
40.702194 113.84431 6.5734568
41.220337 113.88491 6.5325451
38.842873 114.44991 6.8531137
39.142857 114.34035 6.805542
39.699097 114.19638 6.727746
40.076378 114.08867 6.6736422
40.912758 114.06749 6.591929
45.869171 114.03031 6.9491024
38.267876 114.66962 6.9463744
38.664642 114.50305 6.8794498
39.211533 114.94154 6.9001346
39.572922 114.8103 6.8434668
34.815895 115.95977 6.513278
33.358006 116.4594 6.7039795
33.688923 116.33664 6.6593318
34.274754 116.12204 6.5808172
34.667511 116.00077 6.5313063
31.941223 116.93341 6.8891029
32.294163 116.82941 6.8447356
32.749889 116.66962 6.784184
33.103027 116.54272 6.7369423
31.098515 117.12961 6.9885397
31.741886 117.01271 6.9169044
100.10923 117.79915 6.5193415
99.956108 118.25859 6.5753398
100.0863 118.002 6.5450926
99.718437 118.6755 6.6241536
99.309761 119.31582 6.6988244
99.541122 119.00478 6.6631813
24.472033 119.89095 6.6092405
25.457626 119.61043 6.5150547
98.944412 119.88003 6.7652569
99.112915 119.64493 6.7378435
22.393782 120.43288 6.8031702
22.842602 120.28445 6.7580409
23.324089 120.19289 6.7165613
23.839012 120.15424 6.678299
98.696571 120.28237 6.8133721
-7.1251373 120.8286 6.6162243
20.822897 120.75681 6.9413643
21.26469 120.74026 6.9100623
21.769472 120.6549 6.8675623
22.088383 120.53406 6.8339071
92.414993 120.93774 6.7741241
92.607361 120.86656 6.7678375
98.385719 120.87817 6.8864651
98.548973 120.73468 6.8707108
92.10276 121.1611 6.7995019
98.268227 121.26821 6.9365563
91.9888 121.70111 6.8730516
92.019974 121.51114 6.8469591
97.99791 121.63357 6.9803219
98.157745 121.66235 6.9875708
-0.88752747 122.41019 6.5045919
-0.71170044 122.54828 6.508935
-8.0176811 124.82965 6.9774218
-7.8990059 125.0303 6.9891386
3.0947571 126.7715 6.6980395
3.3058853 127.23226 6.7262406
3.4419212 127.63374 6.7526751
3.5214043 127.82906 6.7649832
3.6573131 128.24702 6.792645
3.8223515 128.75047 6.8258495
3.9453773 129.03853 6.8436651
4.0404892 129.36252 6.8654099
4.1907291 129.77629 6.8919778
4.3304005 130.19447 6.9192681
4.4596806 130.62378 6.947803
4.5509071 130.95241 6.9699278
4.6998291 131.23537 6.986095
8.4869232 131.30318 6.8366833
8.5825996 131.48517 6.8469191
8.6252518 131.7027 6.862092
94.947372 136.73306 6.9205894
95.2686 136.59352 6.8975163
42.994354 48.823551 7.2649202
43.22823 48.836361 7.2430463
42.845512 49.291428 7.2313094
103.86182 85.462639 7.049983
32.444733 88.379333 7.0993299
103.88733 88.882202 7.3028789
103.88889 89.15921 7.3248167
104.05185 89.332062 7.3554115
33.992218 89.713783 7.3641319
34.107327 89.798447 7.3306236
34.408333 90.38961 7.2611904
35.126087 91.705475 7.1082602
33.340816 99.558105 7.3230624
33.877552 99.642563 7.2083387
34.110043 99.879555 7.1922011
33.972328 100.20944 7.2805452
34.095867 100.05733 7.225482
27.721228 100.90778 7.0976744
35.390499 100.83716 7.0590158
35.671513 100.99178 7.0223722
115.10518 100.76949 7.299962
20.983528 101.19116 7.1899376
21.048908 101.34137 7.197947
22.444576 101.3863 7.0086322
26.562437 101.20244 7.3358583
27.746386 101.07981 7.1159949
28.337173 101.09772 7.016911
35.502956 101.01086 7.0646753
36.73402 101.37591 7.4726958
37.122971 101.44695 7.3881202
115.17317 101.11711 7.3411946
21.116531 101.55226 7.2126818
22.531654 101.57616 7.018497
26.329468 101.95309 7.475131
37.288563 101.67315 7.3953786
40.882973 101.76327 7.0521951
41.023117 101.7642 7.0158911
21.621767 102.40884 7.2420249
26.361675 102.03856 7.4810553
40.92112 102.36742 7.2108603
108.78833 102.47655 7.0569868
21.350645 102.66252 7.3094358
21.731556 102.92896 7.2883558
22.075626 102.5899 7.2005711
41.366127 102.83732 7.2343917
107.85469 102.83545 7.0341134
21.917479 103.03574 7.2754259
22.098137 103.14258 7.2633119
32.583504 103.04173 7.3384323
37.63076 103.0985 7.0066977
41.498592 103.16068 7.2970886
41.738091 103.2972 7.2806253
107.71498 103.10652 7.0549717
37.426796 103.55499 7.1473351
41.915405 103.71852 7.3663573
42.020294 103.90199 7.3983307
107.12453 103.69959 7.0823159
22.804369 104.28827 7.305902
23.221497 104.45941 7.2702785
33.440872 104.26369 7.3859196
33.582333 104.47574 7.3972855
37.119293 104.19115 7.3492222
37.927197 104.22913 7.1908321
41.849491 104.30582 7.1841416
42.021652 104.05574 7.4453621
42.729828 104.3873 7.3930464
43.516045 104.4876 7.2605867
106.86826 104.34779 7.1391544
23.041435 104.87641 7.3467693
23.533876 104.55578 7.23981
37.361069 104.55882 7.3798628
37.647163 104.71812 7.3569221
42.257957 104.61563 7.0067139
106.40301 104.86822 7.1683979
106.73077 104.63338 7.1629095
22.971415 105.02121 7.3744183
23.308258 105.15767 7.3459897
23.695908 105.32939 7.3153458
30.565346 105.07028 7.2169166
45.781826 105.00365 7.0186987
23.68482 105.50646 7.3393698
36.407097 105.88145 7.1494703
36.595837 105.981 7.1363864
45.996147 105.61163 7.1964464
46.151222 105.88928 7.2702131
47.873394 105.79916 7.0072746
48.275429 105.92424 7.0069823
23.027462 106.04241 7.4963102
32.248215 106.10416 7.1134243
36.693321 106.17054 7.1575518
45.882263 106.05423 7.3687983
46.333645 106.2239 7.3614554
46.767002 106.32188 7.335391
106.17864 106.22552 7.3131089
14.515289 106.9415 7.3796253
36.455193 106.77121 7.3198142
36.577255 106.84793 7.3145838
46.871922 106.69979 7.4558907
47.013489 106.77383 7.4637165
106.19302 106.63189 7.3625164
24.439297 107.45757 7.492857
36.464497 107.40578 7.447814
36.595947 107.34712 7.4137268
105.58802 107.29318 7.4029775
14.889088 107.66924 7.420682
36.550049 107.71852 7.4979801
105.22819 107.80624 7.4423523
105.22086 108.20998 7.4915543
15.969692 108.66425 7.4198742
-1.6714172 109.33277 7.382021
-1.3630486 109.03865 7.3321972
30.378416 109.99786 7.0900373
36.928707 109.50548 7.023035
29.84112 110.35992 7.2091026
30.098204 110.47028 7.1938667
30.586094 110.1761 7.09093
30.492243 110.63831 7.170783
30.845406 110.75702 7.1457486
21.199482 112.2924 7.3116312
21.352217 112.78503 7.3553495
8.3725204 113.92806 7.1161518
41.311203 113.82298 7.3398361
41.659294 113.8169 7.3018169
8.2912235 114.43025 7.1708751
41.829231 114.22813 7.3684797
44.39035 114.48994 7.1745691
45.601261 114.48949 7.0687723
8.293787 114.79274 7.2061381
37.751659 114.85522 7.0286012
41.94796 114.5775 7.4281368
42.056545 114.86372 7.4761214
42.934456 114.98567 7.4145317
43.116013 114.95107 7.389833
44.292992 114.55416 7.1968756
7.769371 115.3447 7.2967596
36.072296 115.37894 7.285758
37.711582 115.45 7.1316919
38.113892 115.29674 7.0663624
42.726772 115.076 7.4534869
46.861828 115.14771 7.1073656
47.620369 115.37056 7.0984201
7.3194237 115.77937 7.3707218
34.871029 115.7961 7.4791923
35.058723 115.77818 7.4565544
35.81424 115.51203 7.334281
44.863022 115.65175 7.3774691
45.008999 115.59537 7.3529882
7.136631 116.26761 7.4313273
49.113049 116.08176 7.1491737
50.601978 116.81963 7.218575
30.888405 117.21309 7.01793
50.85326 117.1454 7.2747579
51.237862 117.31886 7.2914314
52.295704 117.27014 7.2280674
52.68026 117.26746 7.2097015
28.964861 117.91458 7.2797403
30.816765 117.82663 7.1046429
31.029875 117.73901 7.0745087
51.497482 117.52997 7.3232737
51.762535 117.63047 7.3314681
52.065956 117.67545 7.3261333
28.639305 118.10746 7.333828
29.180288 118.36767 7.3195343
29.802383 118.16958 7.238678
53.250397 118.2354 7.3922191
53.740437 118.61456 7.4529266
54.290333 118.67698 7.4445601
54.767822 118.88815 7.4719634
97.874084 121.89478 7.0132675
98.07653 121.95026 7.0249853
97.799568 122.28819 7.0653954
98.049698 122.15945 7.0529203
97.656891 122.69241 7.1178889
65.387901 123.46255 7.0333347
97.461777 123.38609 7.2095327
97.560875 123.1111 7.1735339
65.172768 123.69207 7.0759749
65.707855 123.58449 7.0488586
97.339828 123.65291 7.2441063
66.360107 124.50932 7.1953716
66.751976 124.88177 7.25244
67.055656 124.90125 7.2512398
80.909897 124.91992 7.2096295
81.226471 124.81372 7.1952295
81.501328 124.7666 7.1897898
67.407669 125.03395 7.2686238
67.76413 125.17353 7.2872601
68.135544 125.34583 7.3113532
80.714409 125.26422 7.2617393
96.394875 125.3304 7.4613786
96.534721 125.07294 7.4275513
68.470146 125.56296 7.343565
68.645477 125.61281 7.349761
80.621727 125.62596 7.3173246
96.301643 125.60944 7.4991751
70.106812 126.29755 7.4477501
71.802948 126.6215 7.4861073
72.155792 126.65936 7.4896784
4.8586135 131.7706 7.0216007
96.885109 83.235176 7.8747725
30.436111 87.322357 7.6289482
30.502205 87.421753 7.6134787
32.260841 88.401848 7.8731289
105.94296 90.152718 7.6179523
108.09032 90.431778 7.8639536
108.80562 90.196167 7.9185925
108.05711 90.721237 7.8848028
31.313 99.379143 7.7843933
30.918303 99.582443 7.9114904
31.110199 99.789886 7.8973937
33.878841 99.589272 7.8848214
34.237869 99.788818 7.8228207
34.510368 99.946785 7.7774553
31.157408 100.04512 7.9262428
34.600945 100.13893 7.7888856
35.392242 100.25856 7.5986724
28.431221 100.53037 7.7862101
33.332848 100.65989 7.5086837
34.765343 100.54754 7.8225269
35.466141 100.55328 7.6362696
35.659294 100.79373 7.6329093
32.254173 101.27979 7.8698153
35.786289 101.20074 7.6823425
36.48848 101.28793 7.5174532
36.514587 101.36894 7.527832
36.65501 101.69522 7.5617175
25.277697 102.76185 7.7638187
26.185415 102.88926 7.6265616
36.943741 102.70341 7.7129917
37.199615 102.77325 7.6657462
37.306675 103.28485 7.7589102
37.400627 103.55333 7.7997952
37.627666 103.7962 7.8040161
37.00243 105.46043 7.6539955
37.053768 105.54465 7.6626096
32.9482 106.2467 7.8415537
36.403091 106.32147 7.968986
36.553661 106.42049 7.9614043
22.152796 106.92857 7.7276363
36.575245 106.58609 7.9949179
47.024349 106.93025 7.51828
22.22718 107.01651 7.7290449
24.267534 107.37041 7.5039759
14.019611 107.57351 7.5000048
24.374191 107.67981 7.531044
30.745295 107.74151 7.6152096
36.1427 107.57263 7.5363603
36.766956 107.95695 7.5115623
24.971228 108.12327 7.5122166
31.433018 108.09424 7.5679588
36.13475 108.36021 7.7002563
37.036228 108.15535 7.5089626
105.10426 108.37065 7.5039511
35.800842 108.7085 7.8280725
104.94531 108.6306 7.5260782
11.290504 109.36627 7.97891
11.586422 109.48598 7.9616308
12.62859 109.361 7.8405242
15.543758 109.15087 7.5179605
36.836418 109.03117 7.7267113
104.53598 109.32379 7.5869098
12.598743 109.68777 7.879878
36.427162 109.77065 7.949965
104.48309 109.61295 7.6201286
-4.2581367 110.33015 7.6603498
15.819258 110.13249 7.6004839
33.811584 110.31844 7.6034431
104.42459 110.29964 7.7040238
104.56956 110.04823 7.6809683
-4.9901543 110.77234 7.7543287
31.498854 110.57864 7.9833593
31.776226 110.75658 7.9740133
32.8302 110.80727 7.8308182
103.5951 110.84169 7.7220879
104.25977 110.66202 7.740314
14.82444 111.08144 7.8093739
103.36911 111.15746 7.749176
102.92578 111.81854 7.8087215
103.07359 111.56491 7.7843351
103.45406 112.31646 7.9071379
102.68483 112.84705 7.9312048
2.1308746 113.72963 7.5347786
45.95517 113.97795 7.7192883
-0.64092636 114.05962 7.7617731
44.434666 114.44275 7.9804754
44.658684 114.37888 7.9423246
45.574715 114.09615 7.7838392
46.166748 114.06828 7.7225437
39.677086 114.90979 7.7382431
40.311104 114.79332 7.6449409
40.60672 114.66439 7.5867324
46.412632 114.75497 7.8715086
46.745472 114.90018 7.8791885
2.3205032 115.25592 7.6693859
42.203041 115.29413 7.5503678
47.258049 115.13289 7.8949194
47.552158 115.29555 7.9121046
42.328968 115.67268 7.6162982
1.8736992 116.08234 7.781064
34.376167 116.15993 7.5905962
34.907719 116.34567 7.565073
42.868271 116.32443 7.6997356
43.296906 116.18298 7.6298923
43.67181 116.04955 7.5672746
49.162334 116.06109 7.9873533
35.00198 116.56095 7.5905018
6.8543968 117.39645 7.5618362
7.1426888 117.44678 7.5467424
32.93005 117.20222 7.9134054
7.1941566 117.61826 7.5600424
5.498867 118.77914 7.79214
55.424652 119.36295 7.5503163
55.594261 119.26241 7.5232887
55.249279 119.70444 7.6290917
56.713306 119.76729 7.5965681
57.095627 119.93008 7.6205196
54.970394 120.34781 7.7762556
57.2733 120.04455 7.6400404
58.868572 120.31203 7.6598458
59.203876 120.38668 7.6690564
54.904896 120.55898 7.8237457
58.269123 120.74411 7.7634187
58.624641 120.708 7.7480173
58.285587 121.78412 7.9822168
60.730759 121.86548 7.9524565
61.082458 122.07845 7.9917355
96.164513 125.75041 7.5167942
71.650444 126.88631 7.5310936
92.77652 126.99269 7.6427402
93.004219 126.93416 7.6374292
71.480194 127.27255 7.5965242
71.566559 127.13343 7.5727053
91.32869 127.47829 7.6945953
91.746742 127.35663 7.6820769
92.251129 127.18733 7.663939
92.561295 127.06007 7.6495724
73.749611 127.95509 7.691925
89.944565 127.98173 7.7526646
90.229469 127.86736 7.7388949
90.735222 127.69903 7.719893
91.113724 127.55046 7.7025442
74.281448 128.09116 7.7110929
74.82917 128.35587 7.7514558
88.770164 128.37099 7.7984824
89.237839 128.19058 7.7761927
89.644905 128.06859 7.762311
75.354965 128.60889 7.7902069
75.782883 128.83069 7.8244457
76.0299 128.9158 7.8372841
87.252022 128.89786 7.8642726
87.721825 128.72 7.84128
88.198143 128.56737 7.8225365
86.3256 129.20569 7.904078
86.797073 129.06693 7.886373
84.319038 129.8978 7.9988718
80.079193 30.350113 8.2676706
82.699387 30.968651 8.2964106
80.37886 31.106293 8.2122374
80.993195 31.170349 8.2250109
97.186935 39.594296 8.4769907
97.768784 40.234718 8.4845304
97.934845 40.769531 8.4682693
98.110191 41.279518 8.4546509
98.28421 41.803566 8.4408302
98.426498 42.198254 8.4317026
98.511124 42.458805 8.4251747
98.628326 42.83989 8.4154167
98.778969 43.355419 8.4020977
98.649193 44.169502 8.3524733
99.174896 44.494286 8.3800106
98.825378 44.511475 8.3505945
99.299065 44.870697 8.3729095
99.453522 45.363228 8.3634596
99.615021 45.844604 8.3556986
99.777695 46.32885 8.3485136
99.943977 46.821625 8.3418999
100.10973 47.318741 8.3357029
100.26991 47.628429 8.3371658
100.78726 47.774105 8.377224
101.9975 47.958351 8.4788952
101.71634 51.352669 8.3351479
101.89232 51.801559 8.3378849
102.04344 52.253109 8.3387527
102.1748 52.710258 8.3381233
102.33807 53.168076 8.341198
102.43672 53.503307 8.3417606
102.55724 53.834213 8.3449736
102.70587 54.282494 8.3483677
102.84917 54.732143 8.3517914
102.9543 55.069458 8.3544922
103.07001 55.383835 8.3591681
103.22839 55.83028 8.3657074
103.37195 56.264557 8.3715744
103.46629 56.583019 8.3750858
103.55508 56.790173 8.3804235
103.6964 57.24556 8.3870268
103.85808 57.788719 8.3949032
103.96446 58.106853 8.4011879
104.2366 58.204308 8.4289627
104.53897 59.041786 8.4501286
99.790863 82.95327 8.2533836
100.01705 83.074318 8.290369
31.29015 86.451721 8.1441936
31.632967 86.686363 8.0389471
112.77805 87.837234 8.1411543
109.93825 93.188408 8.2968721
108.44351 93.682327 8.1868124
32.804043 99.307129 8.1319733
33.045277 99.247261 8.054883
29.354067 99.925385 8.3438978
32.750645 99.65963 8.2076578
33.264168 99.646225 8.0638237
33.460258 100.06656 8.0854921
34.835476 100.44776 8.4656305
29.339121 100.76816 8.479414
29.53426 100.78355 8.434927
34.936527 100.60152 8.467536
35.050327 100.68504 8.4509974
35.279919 101.19186 8.4928885
35.929878 101.47265 8.3642225
36.57357 101.37299 8.1528368
32.000885 101.98807 8.0533648
35.927254 101.57536 8.3886728
36.606209 101.66196 8.2113476
37.381645 101.95806 8.060605
26.297615 102.34446 8.4904423
32.041138 102.08688 8.0615864
37.329674 102.06126 8.1007833
36.394127 105.44656 8.4986897
36.174438 108.30202 8.4715328
29.249475 109.96162 8.2142353
11.543388 110.47227 8.0756063
11.999756 110.92432 8.0794582
110.45903 110.75914 8.1439352
110.52915 110.55482 8.1227865
11.914074 111.21156 8.1204996
12.009285 111.41557 8.1337538
20.885422 111.34278 8.4822035
12.074007 111.62184 8.1504412
12.20253 112.14085 8.1961527
21.78447 112.07172 8.4666777
12.708591 113.06691 8.2505779
13.70715 113.28709 8.1752214
-11.419392 113.76186 8.4948349
13.963772 113.57643 8.1828671
41.3535 113.77148 8.1619482
41.747849 113.85977 8.1354618
102.35902 113.54694 8.0062494
41.886959 114.24707 8.2117233
101.91064 114.2991 8.0825729
102.10931 114.06879 8.0626717
42.030514 114.65134 8.2920017
43.245026 114.86456 8.2079391
43.596989 114.74828 8.1419563
42.177074 115.0828 8.3790894
42.894447 115.05217 8.2915697
101.48083 115.4631 8.2193508
101.65625 115.11993 8.1815128
43.857914 115.96302 8.4120426
44.496506 115.7398 8.2932634
44.772808 115.64928 8.244071
101.40462 115.65017 8.2412424
101.64433 115.9573 8.2984619
43.418137 116.11029 8.4934225
43.617554 116.04 8.4555559
50.654083 116.82417 8.0876713
101.14339 116.89259 8.4028854
50.866257 117.11969 8.1503038
51.251709 117.29819 8.1745996
51.554703 117.48579 8.2061701
52.35136 117.2101 8.0986624
52.69416 117.2058 8.082468
100.34066 117.36203 8.4252386
100.93318 117.20995 8.436615
31.349609 117.76233 8.1743717
31.734095 117.72083 8.1258783
32.036564 117.68671 8.0876274
51.775978 117.57966 8.2188129
52.083088 117.64313 8.2199898
99.838913 117.84442 8.4675045
100.22668 117.6102 8.4549026
29.835148 118.29058 8.4252272
30.498764 118.02402 8.3094702
31.61931 118.41981 8.250658
53.260033 118.1292 8.2910414
53.756165 118.18227 8.2853632
54.274361 118.37987 8.3165598
99.814911 118.04604 8.4957161
31.709991 118.72392 8.2899761
54.766182 118.61394 8.3591881
55.266655 118.84593 8.4022932
55.571331 118.98563 8.4287205
31.866076 119.19314 8.3492136
55.673134 119.02312 8.43538
46.277367 120.79317 8.3563738
46.606159 120.92593 8.3603277
50.390411 121.18599 8.1695309
54.438007 121.45718 8.0335255
48.226589 121.74414 8.422595
48.562199 121.91048 8.4363317
50.139782 121.72181 8.2991447
54.358688 121.62822 8.0732622
58.175053 121.97931 8.0260563
48.864494 122.05962 8.449029
49.211452 122.22064 8.4619675
49.713612 122.36436 8.4623775
57.972771 122.42314 8.1248646
58.076801 122.20895 8.0769777
61.288933 122.17116 8.008234
61.7789 122.28306 8.0254831
62.281998 122.33472 8.030776
62.691463 122.46217 8.0532494
62.915218 122.56607 8.0727577
63.222504 122.717 8.1014376
63.680233 122.92508 8.1410723
63.987789 123.06556 8.168067
64.301857 123.20126 8.1942787
64.775749 123.3962 8.2321844
65.369499 123.42834 8.2373114
65.64753 123.45833 8.243084
65.169151 123.55568 8.2635059
66.057236 123.89282 8.3307104
66.32843 124.04784 8.3620415
66.769798 124.21991 8.3971224
67.215881 124.40806 8.4357605
67.487221 124.52114 8.4591541
67.757584 124.63353 8.4825382
84.166656 129.97519 8.0102119
82.846657 130.40935 8.0733147
83.284164 130.27495 8.0535746
83.80146 130.07841 8.0247574
81.382301 130.90561 8.1491041
81.723076 130.79881 8.1325216
82.250008 130.63252 8.1070652
82.590332 130.50537 8.0877466
102.23421 47.449448 8.5194149
102.59096 48.363037 8.5183735
102.71925 48.734344 8.5171146
102.8675 49.209816 8.5145292
102.97525 49.578583 8.5122366
103.06917 49.804943 8.5136461
107.11613 57.121128 8.756031
107.43536 57.736656 8.7832298
107.40609 58.160549 8.7752676
107.53042 58.48772 8.7856121
107.67142 58.804001 8.7982979
107.8198 59.261749 8.810997
107.94126 59.588123 8.8221931
108.03145 59.799904 8.8309412
108.15476 60.246582 8.8423414
108.35007 60.792587 8.8620796
108.44963 61.12122 8.8723631
108.51479 61.331856 8.8792934
108.66956 61.764606 8.8964376
108.84488 62.313774 8.916522
108.95957 62.63736 8.9301367
109.39246 62.923523 8.9814873
26.262247 86.017769 8.7593307
116.7075 88.758881 8.6207485
116.85786 89.20752 8.6726789
113.38374 91.47728 8.5029039
113.74532 91.249458 8.5207691
114.43224 91.007935 8.5713797
113.42945 92.342888 8.5837564
113.60715 92.123177 8.5827341
112.58798 92.872612 8.5437775
113.33055 92.549744 8.5919428
112.27928 93.400673 8.5597401
111.8635 94.233582 8.5938568
111.59019 94.755135 8.6147652
111.34396 95.272827 8.6388941
111.083 95.786301 8.6617622
110.82403 96.295448 8.6851854
110.65039 96.795715 8.7172413
110.4021 97.391769 8.7520781
110.57707 97.092415 8.7396536
110.15491 97.792641 8.7677689
109.88527 98.394653 8.8027229
110.00188 98.095345 8.7833948
109.70116 98.789589 8.8254757
109.35007 99.360138 8.8503761
109.58627 99.076607 8.8442354
33.326614 99.971481 8.831625
33.945404 99.937576 8.6337318
109.16938 99.750084 8.8740711
33.38908 100.01842 8.8215246
33.880562 100.1596 8.6982803
34.207798 100.35812 8.6385193
108.89447 100.33092 8.9096127
109.02287 100.04002 8.8907156
34.175888 100.53764 8.6849813
108.64979 100.79947 8.9366913
108.4231 101.27265 8.9667788
28.487532 101.87369 8.8633804
108.23994 101.66315 8.9925423
26.463722 103.72522 8.6676216
34.197571 103.50865 8.5835285
30.995054 105.45825 8.9356508
36.318748 105.42651 8.5113773
36.063831 105.54898 8.6013079
36.832954 106.37092 8.6304703
21.914415 107.10882 8.942379
3.1577911 107.90879 8.6671553
25.022917 107.92884 8.5540466
3.334074 108.13215 8.6723881
3.990696 108.20006 8.6109352
4.1772366 108.4015 8.6129093
23.230446 108.12299 8.8756056
25.334028 108.34081 8.5673027
35.662979 108.28842 8.5673285
35.335506 108.62168 8.708457
31.876076 109.90936 8.7420969
18.510887 111.13078 8.7638607
20.096804 111.382 8.5901155
20.081121 111.53783 8.6133585
20.813007 111.539 8.5184517
20.816008 112.12303 8.598382
21.811939 112.34619 8.5013847
7.6069832 112.57265 8.7137852
45.959415 113.92076 8.5055885
46.030861 113.94942 8.5065937
46.13279 114.0172 8.515789
108.12951 115.36009 8.5995522
42.478203 115.96417 8.5585737
48.992981 115.68896 8.7528486
49.359875 115.84842 8.7732544
49.620205 115.96518 8.7894602
108.04651 115.55676 8.6212015
-13.382874 116.29433 8.8758888
34.447094 116.1504 8.6069469
34.851418 116.17144 8.5601482
35.215103 116.42066 8.5631447
35.509117 116.3345 8.5100861
43.216335 116.17628 8.5307178
49.8578 116.06613 8.8031759
50.098793 116.15778 8.8144655
50.584908 116.37942 8.8494711
50.954128 116.5393 8.8749046
51.290043 116.6806 8.8979168
51.757458 116.87874 8.931778
52.023369 116.98482 8.9498425
52.273937 117.07174 8.9637203
52.706047 117.16032 8.9709873
107.24048 117.17908 8.7961884
27.911686 118.37884 8.6552458
28.041403 118.40524 8.6446323
36.104744 118.33582 8.8323822
99.662392 118.28971 8.5231419
106.63838 118.40855 8.9337101
28.230362 118.77663 8.6814823
36.174995 118.52486 8.8617153
99.572205 118.56565 8.5589104
106.5484 118.60141 8.9558849
-4.5461197 119.32918 8.5468845
28.358042 119.22029 8.7368965
48.492126 119.23102 8.8302631
48.722061 119.22261 8.8123407
49.232491 119.24365 8.7836351
49.734756 119.25797 8.755332
50.24157 119.30471 8.7364264
50.512627 119.3741 8.7381067
99.566994 119.20139 8.6529932
-4.4961662 119.54245 8.5641584
28.369867 119.73603 8.8170576
56.942696 119.56076 8.5400839
99.304672 119.82448 8.7321692
28.47031 120.32322 8.8990049
58.114197 120.04413 8.6400347
58.791298 120.26132 8.6852264
59.046631 120.24792 8.6794004
99.130104 120.38275 8.8071508
-8.6554527 120.5143 8.9501896
28.719582 120.70744 8.9327774
60.658901 120.91972 8.8339987
92.370087 120.88522 8.5443001
92.699905 120.78445 8.5441141
98.829475 120.72462 8.8433189
99.014755 120.91116 8.8813934
60.918694 121.02989 8.8602276
61.264534 121.19725 8.9005604
61.743389 121.42503 8.9559927
92.177002 121.17461 8.5813742
98.477913 121.43637 8.9340572
98.761116 121.24221 8.918849
62.020767 121.54895 8.9864874
92.11805 121.65086 8.6550713
98.439865 121.86308 8.9979296
98.620544 121.7005 8.9820547
68.213158 124.82769 8.5231619
68.715302 124.93826 8.5477209
