# .PCD v0.7 - Point Cloud Data file format
VERSION 0.7
FIELDS x y z
SIZE 4 4 4
TYPE F F F
COUNT 1 1 1
WIDTH 1610
HEIGHT 1
VIEWPOINT 0 0 0 1 0 0 0
POINTS 1610
DATA ascii
47.23938 105.73319 5.1948347
47.656746 105.91266 5.2069292
48.958458 105.80113 5.4980965
49.159184 105.57931 5.2434664
106.56067 105.88251 5.3798933
31.211914 106.30663 5.2242522
31.712084 106.22478 5.1500578
35.841991 106.27045 5.0945306
36.236629 106.4533 5.0621362
36.550476 106.47549 5.482214
106.33688 106.28075 5.409338
36.327225 106.62939 5.0739536
36.580872 106.75527 5.2295547
105.94835 106.97691 5.4617672
106.11644 106.67726 5.4390984
36.799255 107.16425 5.0831819
37.26881 107.37093 5.0475745
37.539959 107.45795 5.0229101
105.82381 107.2719 5.4856558
37.16539 107.52397 5.0844402
37.559658 107.51553 5.0287571
-5.337595 110.23306 5.1261635
15.393559 110.54264 5.4813552
38.2397 111.85307 5.0117769
-11.220993 112.56815 5.4842091
43.578079 112.98764 5.2020817
42.280373 113.4221 5.3996453
42.744152 113.26625 5.3280172
43.254814 113.09531 5.2504683
43.831596 113.09515 5.1957898
44.258991 113.30666 5.1908717
44.577442 113.46165 5.1873784
61.599102 113.38168 5.1375308
40.790974 113.93956 5.0051188
41.80809 113.57868 5.4732776
42.02874 113.50023 5.437861
44.841309 113.59429 5.1856322
45.264706 113.80904 5.1838732
45.57637 113.95816 5.1816263
61.364525 113.67178 5.1848936
1.6065331 114.44122 5.1002569
40.424332 114.44346 5.1051502
40.598198 114.38255 5.0800495
45.824039 114.07263 5.179585
46.143513 114.24831 5.1818781
53.372845 114.30177 5.4278855
53.758648 114.30223 5.4151063
54.077034 114.45839 5.4337296
1.7427254 114.5601 5.1012506
38.864956 114.96612 5.3303142
39.24659 114.83094 5.273839
39.773338 114.66183 5.1985464
40.177185 114.52794 5.1406879
41.813713 114.79839 5.0128865
46.388432 114.54092 5.2095637
46.759781 114.72614 5.2101583
47.170422 114.92836 5.210989
53.238144 114.56995 5.4824376
54.292469 114.57232 5.448029
54.736725 114.78536 5.4738669
55.078491 114.94582 5.4933996
37.870728 115.24815 5.4701486
38.260227 115.17439 5.4196992
38.628845 115.04009 5.3642106
41.929363 115.12669 5.0432172
42.188011 115.16013 5.0226974
47.417263 115.0476 5.2114625
47.775906 115.22434 5.2131886
48.181736 115.42469 5.2157278
48.406555 115.52628 5.2158871
48.523796 115.59445 5.2184906
49.190063 115.92552 5.2251406
33.960506 116.24715 5.230854
34.258907 116.14333 5.192801
34.59008 116.04824 5.1524014
50.31831 116.48223 5.2390561
32.923653 116.96313 5.3949986
33.262276 116.8614 5.353148
33.602539 116.74785 5.3101177
50.491737 116.56892 5.2417049
51.261208 116.94769 5.2535791
0.04611969 117.4968 5.3224416
32.324718 117.16727 5.4712944
32.686111 117.04401 5.4252357
51.397614 117.0031 5.2539926
0.26729202 117.57262 5.3174148
2.9001312 117.7632 5.220027
-0.12165833 118.34023 5.3722382
0.37588882 118.37103 5.3535748
3.1063271 118.21143 5.233778
27.46769 118.40311 5.0803328
0.44755936 118.62802 5.3635874
3.2591648 118.59641 5.2464013
28.633678 118.91908 5.0208788
62.47007 118.64441 5.0000715
62.797489 118.80542 5.0122509
63.137093 118.97616 5.0254793
63.363548 119.08931 5.0342426
63.680679 119.23543 5.044826
64.039818 119.41827 5.0593328
3.7437401 119.72339 5.280652
25.205095 119.9159 5.3451772
25.761368 119.72849 5.2911944
26.112841 119.62444 5.2579193
64.274239 119.52289 5.0667663
64.659882 119.72573 5.0833979
65.03212 119.90759 5.0975561
23.696589 120.4294 5.4916253
24.23358 120.23055 5.4385643
24.735792 120.0601 5.3898411
35.574776 120.0322 5.4165916
65.291748 120.04637 5.1091504
4.2606659 120.92529 5.3153696
37.781708 121.38002 5.3319025
38.181915 121.24365 5.2824154
75.67804 121.98978 5.1147742
4.6360168 122.43129 5.3681211
75.549301 122.06389 5.1270113
76.337799 122.34369 5.1473684
3.4539146 122.59804 5.4271631
3.7087326 122.62715 5.4174147
4.253088 122.67308 5.3957472
75.942429 122.75075 5.2083359
4.3715248 123.30276 5.4188066
76.494774 123.96533 5.3556271
76.6931 123.75519 5.3238378
97.203636 123.603 5.0046835
76.365814 124.13744 5.3810768
80.436447 125.34448 5.4539156
80.811363 125.14319 5.4206867
96.347549 125.33339 5.2134638
95.939209 125.94363 5.2896824
96.051598 125.65466 5.2544394
95.439865 126.22187 5.3285446
95.793358 126.08411 5.30797
92.954369 126.9376 5.4464297
92.747833 127.15779 5.4759388
93.953827 127.08859 5.4509978
103.70689 57.890903 5.5438414
104.18198 58.890369 5.55338
104.74626 60.794476 5.5628991
104.5856 61.449657 5.5510454
104.97178 62.335327 5.5653696
106.50143 62.866196 5.6399331
103.4066 73.918663 5.5510125
103.48193 74.239334 5.5611067
103.68146 74.629242 5.5801735
47.800262 79.377258 5.5601678
31.688004 79.967621 5.7234898
47.468292 79.728394 5.5092573
43.256062 80.414978 5.7142038
45.205765 80.181152 5.5680528
31.588516 80.878777 5.6974163
31.440561 81.360435 5.7034521
31.401756 82.54715 5.6596098
33.431854 83.497459 5.8458147
33.651241 83.009521 5.8350711
36.73111 83.375923 5.7441216
33.603703 83.832825 5.7839746
35.190693 84.885757 5.9163628
34.803436 85.469513 5.9507146
35.083519 85.367256 5.8927045
35.007027 85.517227 5.8962345
100.05222 86.363251 5.7192626
100.38324 86.510605 5.74823
30.771492 87.951569 5.6491966
33.646019 88.054283 5.5215731
34.958649 88.060516 5.6823192
32.568024 88.709473 5.7663307
33.851719 88.743538 5.9376183
30.983545 89.258621 5.5943518
32.372345 89.022255 5.8072672
34.875954 89.319862 5.6162858
35.164505 89.408325 5.7558336
33.341011 89.873222 5.53508
34.928238 89.54393 5.5879059
35.161297 89.964386 5.9358549
36.025391 89.931244 5.6702919
33.198544 90.307594 5.6423912
33.561508 90.49012 5.9365072
34.438507 90.36821 5.6843414
36.33345 90.266304 5.5464849
33.095337 90.622543 5.5848942
33.901432 90.743279 5.8270612
34.161896 90.542915 5.7575798
34.259804 91.467743 5.6976194
34.594326 91.438377 5.5980773
34.375114 91.724174 5.6565681
34.745647 91.781891 5.8040051
33.10178 92.339104 5.5770688
34.391701 92.107262 5.6436939
34.755344 92.103012 5.9006472
35.294594 92.335037 5.7569137
34.706306 92.573822 5.5406389
27.279234 93.418655 5.9399433
33.29076 93.209717 5.5366831
34.761265 93.209526 5.5203757
27.23638 93.727798 5.9655972
35.496033 93.863075 5.6593614
35.544296 93.896767 5.6423831
35.672512 94.254471 5.5988269
30.194427 94.939781 5.9395576
35.838371 94.680298 5.5458441
35.818825 95.108665 5.5639014
29.72715 95.500565 5.5427566
30.334892 96.262894 5.9898262
30.716583 96.315941 5.8982248
30.237246 97.276703 5.5638423
26.826267 97.922882 5.6980438
27.151312 97.797127 5.6303849
26.993509 98.066406 5.6801348
27.361715 98.188194 5.6250343
27.859383 98.367241 5.551971
28.169081 98.41172 5.5009685
27.835957 98.759239 5.5893388
28.033514 98.836708 5.5610924
27.102421 99.360626 5.7709188
27.694469 99.091202 5.6429586
32.919334 99.412125 5.6332254
33.447338 99.414711 5.6471505
33.779621 99.335449 5.832026
27.057192 99.524818 5.7934151
32.859818 99.536072 5.6619353
33.171959 99.709686 5.6055045
33.657593 99.677002 5.9097667
35.327469 99.986763 5.8651657
34.277241 100.18819 5.8057914
35.292793 100.34769 5.751215
35.702419 100.47406 5.8287024
34.786308 100.79284 5.7546153
35.358673 100.72197 5.7830381
35.774891 100.68353 5.842948
19.004715 101.476 5.5239887
22.373848 101.41336 5.9717455
22.518511 101.26086 5.9384918
35.749504 101.07596 5.920692
36.259697 101.2377 5.798224
19.086746 101.73955 5.5357008
22.855999 101.70923 5.9296317
23.05732 101.90094 5.9180431
36.456421 101.52795 5.7961349
36.886345 101.9699 5.7620163
37.108959 101.98715 5.7023683
18.911886 102.14532 5.5855331
37.224964 102.17684 5.7463908
37.51313 102.22562 5.9975228
17.864527 102.70967 5.7396293
18.102989 102.73932 5.7168427
31.3494 102.74029 5.901309
31.515966 102.86012 5.8829727
19.54038 103.4979 5.6249475
32.411224 103.44392 5.781105
36.621559 103.43875 5.7551842
37.301296 103.46481 5.5984211
19.144331 103.99046 5.705277
32.422096 103.52438 5.7898855
37.39938 103.57388 5.8555927
37.61507 103.80394 5.5981688
18.21143 104.45403 5.8397551
32.937481 104.18743 5.7814012
33.02766 104.24716 5.7724705
36.627281 104.44901 5.9653683
37.494835 104.08411 5.6867294
18.224642 104.54572 5.8456011
30.603218 104.71793 5.722703
31.478729 104.99847 5.6124601
9.5569458 105.1662 5.533309
31.504234 105.08337 5.61867
36.382439 105.39864 5.7744927
36.644024 105.41988 5.7264214
44.565323 105.40222 5.5068192
7.8185997 105.72317 5.695302
36.471333 105.51642 5.779449
44.374371 105.67208 5.6201258
44.801514 105.7091 5.5928473
45.034492 105.88713 5.6346712
47.597755 105.89082 5.5192423
49.003395 105.81255 5.5027976
36.191792 106.30582 5.8311667
31.113468 106.59601 5.8705268
32.324471 106.74637 5.6977682
36.280338 106.58942 5.5472713
36.71386 106.82861 5.5157471
36.889992 107.18734 5.5491962
37.114807 107.23909 5.76161
22.922464 107.92671 5.6269054
23.791796 107.61942 5.5115519
36.814728 107.9427 5.6943798
23.939199 108.43301 5.5632572
24.004538 108.48694 5.560957
36.764168 108.21434 5.7507353
104.91125 108.9498 5.6185961
105.08098 108.66875 5.5964198
104.76802 109.2514 5.6438832
29.820948 109.92633 5.7931418
104.422 109.94213 5.7019825
104.55568 109.64584 5.6764574
29.945482 110.13872 5.8005495
104.19344 110.31714 5.7327514
103.62816 110.71176 5.7552724
103.70703 111.27142 5.8155332
103.45573 111.8587 5.869031
103.5824 111.67403 5.8535824
-12.009895 112.37777 5.5023165
103.28119 112.24355 5.9042764
-11.768742 112.51198 5.5013113
-11.327042 112.81973 5.5030394
43.433197 112.96262 5.8028893
43.692471 112.94094 5.7732735
102.9369 112.90857 5.9646611
103.07442 112.62601 5.9385858
-11.362026 113.04123 5.5173988
42.377213 113.31746 5.9814935
42.746181 113.19408 5.9183846
43.167725 113.05302 5.8473191
43.917946 113.03946 5.7712002
44.229904 113.18883 5.7717113
44.693169 113.41462 5.7744761
102.80969 113.1935 5.9914789
40.423309 113.97997 5.6855421
40.761585 113.87978 5.632627
41.258724 113.74445 5.5575714
41.549366 113.66843 5.5146604
44.957199 113.5414 5.7763557
45.259708 113.6991 5.7817216
45.734341 113.91985 5.7860146
38.92659 114.47421 5.93332
39.224541 114.38743 5.8852258
39.741611 114.21566 5.7990918
40.175129 114.0638 5.7263637
45.912403 114.02367 5.7921209
46.263809 114.1874 5.7968173
46.693848 114.41167 5.8082309
38.726265 114.55696 5.9697347
46.927254 114.52997 5.8142214
47.237225 114.67957 5.8212781
47.694935 114.90911 5.8343081
53.121361 114.80286 5.530138
37.381817 115.46307 5.5490127
37.600796 115.38178 5.5154877
47.946968 115.03372 5.8415947
48.245052 115.18858 5.852222
48.621201 115.37182 5.8637719
49.119743 115.45007 5.8480659
53.021664 115.00029 5.5707726
55.322037 115.07098 5.5094891
55.745285 115.27262 5.5348625
56.089642 115.47942 5.5634732
34.663326 115.9967 5.913722
35.459255 115.91422 5.8146048
35.759392 115.7916 5.7663703
36.173321 115.67379 5.7063031
37.161621 115.54518 5.5828466
48.85022 115.80627 5.9343748
49.317566 115.5602 5.8576651
49.72385 115.75794 5.8723884
50.058533 115.92112 5.8850565
56.224308 115.55138 5.5731192
34.31472 116.08302 5.9635515
34.646126 116.02991 5.9196873
48.975182 116.02966 5.970273
49.135315 116.09805 5.9737344
50.33403 116.12384 5.9091244
50.626423 116.24148 5.9161053
56.869141 116.43938 5.7172804
51.315567 116.56449 5.9428096
51.524014 116.65458 5.9497499
57.22253 116.6172 5.7408724
57.718098 116.85129 5.7715564
58.005531 116.99028 5.7901177
31.392258 117.47005 5.5889778
31.76824 117.35665 5.5422645
32.083519 117.24751 5.5018749
58.311665 117.14157 5.810638
58.783916 117.37479 5.8425345
29.95615 117.95819 5.7726927
30.242165 117.86652 5.7365494
30.735085 117.68919 5.6726007
31.140856 117.54525 5.6201863
59.271351 117.61047 5.8749089
59.775944 117.85822 5.9094448
28.844654 118.34312 5.9158974
29.223402 118.21244 5.8671098
29.662836 118.07197 5.8115311
60.30246 118.12112 5.9466023
60.749863 118.33683 5.9771042
61.01907 118.45962 5.9943562
-11.525845 118.95679 5.8577232
28.301525 118.5334 5.9861755
-11.523518 119.42151 5.8827357
-5.1146545 119.47739 5.6318188
-5.1686249 119.71253 5.6461163
20.744783 120.66514 5.730186
21.188408 120.7978 5.7047362
22.722483 120.59777 5.5760903
23.218956 120.54801 5.5352521
21.426424 121.06006 5.7027063
2.1614265 124.44788 5.567173
0.089687347 126.47432 5.7487688
1.3891029 126.47459 5.6910868
2.072319 126.23372 5.650054
2.6336021 126.06112 5.6174154
0.10882187 126.90193 5.7668247
0.78591156 126.65448 5.7258449
92.298813 127.45526 5.5184569
92.574249 127.39802 5.507535
3.372921 127.83788 5.6596785
90.454361 127.8546 5.5951753
90.72644 127.69016 5.5706778
91.365326 127.77942 5.5719032
91.645798 127.7196 5.5603476
3.4648018 128.11368 5.6669807
3.5712795 128.35678 5.6721673
89.630432 128.332 5.6676512
3.6878986 128.73071 5.6822119
3.8473575 129.17973 5.6931801
87.194016 129.20718 5.8205242
3.977026 129.64648 5.7060776
4.0847702 129.92996 5.7124448
88.384666 129.64941 5.8550081
88.708656 129.5293 5.8339453
4.2080956 130.28755 5.7209411
4.3490772 130.76077 5.7330742
4.453701 131.03458 5.7388964
4.5194321 131.23355 5.7435727
30.132355 78.813454 6.0746918
32.997154 79.807388 6.2303514
35.129913 80.52124 6.4316974
38.165661 80.691864 6.4521055
32.694618 82.008003 6.1158361
33.614639 83.476578 6.4382129
34.97036 85.221184 6.4932718
35.027672 85.209091 6.4795189
104.90253 85.9011 6.0241079
107.83688 86.263374 6.2395062
29.067791 86.946243 6.0424643
107.96436 86.915161 6.2803473
28.988058 87.338203 6.0576086
108.3076 87.300583 6.3232813
110.51248 87.207924 6.468771
29.137926 87.646904 6.0218358
108.93295 87.887756 6.3965693
109.74129 87.548126 6.4338908
30.889149 88.21743 6.2111216
109.19241 88.305862 6.4366908
32.2658 88.679352 6.3917179
34.889919 89.431946 6.0632377
32.106636 89.956558 6.3866053
32.596512 89.615349 6.2540092
108.06819 89.551567 6.4285011
33.274658 90.123253 6.0347805
33.667755 90.143776 6.4027386
34.133705 90.048424 6.2573404
106.55536 90.370316 6.3713832
33.33596 90.573769 6.0005722
33.84156 90.673309 6.3161221
34.162617 90.766785 6.2052217
34.574059 90.605309 6.0796323
106.42485 90.814339 6.3885393
106.56797 90.584961 6.3848448
34.228947 91.319191 6.1560669
34.532764 91.268456 6.0570459
105.95314 91.286057 6.3842354
106.45976 91.026283 6.4036169
105.81176 91.617531 6.3946753
106.79825 91.848938 6.4773283
26.76618 93.482887 6.0517931
26.849285 93.914597 6.0579805
26.635008 94.038902 6.1104841
28.91357 96.965195 6.3988438
29.233025 96.851135 6.3098745
29.926014 96.640518 6.120121
30.194584 96.538605 6.045188
28.61034 97.055283 6.4819398
27.412033 97.90741 6.2184863
27.75029 97.714485 6.1302781
28.05681 97.685974 6.0624695
27.628553 98.190857 6.1966395
28.104523 98.443077 6.1173825
27.847345 98.943794 6.2173533
28.183401 98.698189 6.1235328
27.810211 99.044067 6.2345195
32.574665 99.22834 6.1600332
33.320042 99.386375 6.4139218
33.576145 99.325035 6.3239808
33.800617 99.682762 6.3015466
34.095337 99.905571 6.2402611
33.98333 100.08507 6.3023062
34.773682 100.36093 6.0975227
35.03104 100.34187 6.0143638
19.335726 100.82299 6.3484855
19.646828 100.59206 6.2856636
35.316853 100.70718 6.3869004
35.957184 100.53924 6.1356769
36.059147 100.7729 6.146615
19.25239 101.20418 6.3919158
21.301912 101.4319 6.1235256
35.541389 101.34702 6.436368
36.329807 101.18563 6.1396103
36.611446 101.33518 6.0785294
19.266335 101.61262 6.4242487
36.749622 101.67039 6.1076102
36.864452 102.09055 6.1676283
37.305332 102.24365 6.0666428
21.095177 102.50763 6.2448797
25.596746 102.95494 6.3776288
26.245401 102.60102 6.2293878
37.416866 102.58765 6.1174202
25.538099 103.08653 6.4012699
32.481903 103.22888 6.2490425
36.672043 103.40115 6.137218
37.334332 103.42233 6.3578067
37.536667 103.45346 6.3069353
34.141178 103.91885 6.4641294
36.995663 103.51868 6.4828563
37.316196 103.75203 6.2466578
37.51841 103.52038 6.3301516
30.44137 104.43898 6.3059969
33.285557 104.34409 6.2440457
33.511078 104.15054 6.1616292
37.281021 104.18576 6.1631632
30.615379 104.70366 6.3076248
33.190826 104.54865 6.2991762
36.360394 104.88344 6.120585
36.881199 104.93158 6.012125
31.604898 105.37661 6.2094326
36.352734 105.76588 6.3157964
36.581982 105.82557 6.2782202
15.140516 106.48808 6.3228617
36.077564 106.37503 6.0247216
36.618908 106.155 6.3444982
14.295301 106.59573 6.4199958
15.161755 106.76903 6.3429794
23.296289 106.92328 6.3476243
35.90744 106.90768 6.1628604
36.295437 106.74477 6.0556722
36.505466 106.84258 6.0348716
33.313179 107.16824 6.1629062
36.407928 107.3371 6.1532474
36.640129 107.24261 6.0905504
37.180092 107.35646 6.0143332
-0.10322189 107.83597 6.403944
22.8258 107.76848 6.4940519
36.466469 107.91801 6.2609181
36.576756 107.64719 6.1849394
37.284119 107.66776 6.0602589
-0.78324127 108.34322 6.4873757
-0.29124451 108.0497 6.4321136
4.2764492 108.33031 6.127069
4.635128 108.45417 6.1100769
23.890282 108.15785 6.3888192
36.829647 108.26397 6.2664318
4.3962288 108.66981 6.1418819
4.6435261 108.82455 6.1348991
24.414484 108.62346 6.3652163
35.362934 108.86599 6.0923176
36.836765 108.76778 6.370863
35.859764 109.1924 6.0687318
36.78056 109.08517 6.4476357
37.004108 109.02044 6.3947344
43.658176 112.99149 6.3865747
41.940735 113.45747 6.0561876
42.125824 113.40144 6.0250273
43.274498 113.11133 6.4539495
43.784161 113.07548 6.3939228
44.255554 113.29144 6.3992577
44.577572 113.44837 6.4063148
102.71284 113.38334 6.0091
39.987686 113.98965 6.3864775
40.197685 113.91689 6.3468733
40.879013 113.8623 6.2555642
41.238308 113.79476 6.2010274
41.676369 113.58868 6.1112189
44.84053 113.57761 6.4131694
45.263481 113.77904 6.4240055
45.640251 113.95886 6.4350047
102.40707 113.94656 6.0613651
102.56441 113.66655 6.035449
7.8788605 114.26925 6.2697468
8.1211948 114.38524 6.2599211
39.457306 114.21503 6.4956675
39.751179 114.10909 6.4386778
40.42844 114.45521 6.4244614
40.701111 114.23682 6.3496962
45.889954 114.06857 6.4407997
46.113693 114.21154 6.4569206
46.739296 114.23737 6.4165769
47.141666 114.42651 6.4327369
102.28799 114.23189 6.0892134
8.2897797 114.61458 6.2628751
37.431732 114.97978 6.1903682
37.762402 114.87234 6.133625
38.252121 114.71441 6.0503554
38.533417 114.62134 6.0024695
40.280388 114.51974 6.4546428
47.387817 114.57336 6.4504952
47.777328 114.78036 6.4736757
53.274799 114.76531 6.2429328
53.754066 114.86564 6.2552876
101.94623 114.89442 6.152709
102.11288 114.60312 6.1251392
35.764011 115.47453 6.474175
36.229202 115.38377 6.401557
36.731602 115.21751 6.313252
37.17131 115.06924 6.2360778
48.286888 115.02361 6.4990377
52.958111 115.34235 6.3774581
53.075871 115.08179 6.3170104
54.234577 115.09662 6.2971196
54.736938 115.34666 6.3435688
101.76807 115.26666 6.1893044
35.850258 115.52181 6.4705381
55.260345 115.60021 6.391274
55.655907 115.83043 6.4361029
101.48445 115.82546 6.2443657
101.59689 115.64416 6.2269835
33.236565 116.41607 6.126617
33.71386 116.29718 6.0576897
34.035534 116.19409 6.0086207
101.30045 116.20094 6.282043
31.483995 116.99844 6.3993917
31.801298 116.89404 6.3499041
32.292381 116.73547 6.2738547
32.773148 116.56863 6.1982603
50.406303 116.73784 6.0241055
50.78891 116.92502 6.0395598
51.151295 116.92352 6.0202236
100.92741 116.94814 6.3578067
101.06165 116.66632 6.3288846
30.952934 117.18204 6.4834938
31.224924 117.08801 6.440393
51.256008 117.11822 6.0524368
27.349503 118.42427 6.0707154
27.771461 118.35699 6.0230484
27.964453 118.50199 6.0166931
28.074661 118.59585 6.0140553
61.30706 118.60202 6.0148382
61.798626 118.84348 6.0497289
24.82682 119.48451 6.4140244
25.231192 119.41783 6.3679409
25.736969 119.38599 6.3148575
26.272926 119.20858 6.2461247
26.637173 119.08873 6.1995053
62.316307 119.10497 6.0879698
62.715927 119.29733 6.1160479
63.038956 119.4601 6.1400995
24.33638 119.6398 6.4764514
24.632233 119.54631 6.4388037
63.256935 119.56595 6.1557055
63.729023 119.81329 6.1927466
64.290276 120.07071 6.2307763
-14.213711 121.59289 6.104598
-13.77454 121.75591 6.0958748
17.359591 121.95399 6.0644517
-13.710091 122.21739 6.1176004
-13.46497 122.1161 6.1025653
17.220295 122.08711 6.0831246
-14.00473 123.06219 6.1735029
30.933094 80.130844 6.6356506
31.354012 80.236809 6.5372705
34.209675 80.012329 6.6889181
32.994675 80.522957 6.8987484
35.957073 80.944908 6.8710008
34.889412 85.20546 6.516953
29.927849 86.454285 6.510643
31.117464 87.071693 6.8043299
30.745129 87.92659 6.8666501
110.60454 87.890945 6.5110455
30.909267 88.257088 6.8041205
31.03756 88.175247 6.7704873
31.09354 88.568405 6.7370453
107.25806 92.367287 6.5418482
107.26232 92.692665 6.5629535
107.77206 93.086624 6.6239805
109.68742 93.438881 6.7805352
107.47469 93.870148 6.6553564
107.59396 94.289276 6.6921482
107.66974 94.60762 6.7193508
27.32688 96.778877 6.7814398
27.789597 97.19281 6.6984906
28.318924 97.347092 6.5787492
27.749483 97.818489 6.7613974
28.240019 97.669617 6.6258278
27.527618 98.194275 6.8502679
32.435905 99.302628 6.6862669
32.768234 99.297539 6.5789714
33.185307 99.4422 6.9267945
32.767181 99.79039 6.6453037
33.291012 99.680664 6.9242887
33.271755 100.0742 6.9916778
33.848869 100.37029 6.8366227
34.449345 100.40808 6.633018
34.583622 100.33045 6.5728693
33.247337 100.50133 6.5970559
21.258018 101.25555 6.9691658
21.725677 101.30359 6.8915372
22.588209 101.37119 6.7466111
33.893951 101.00901 6.9329104
22.455122 101.9675 6.8261127
22.699566 101.67014 6.7551851
18.739645 102.37664 6.5629988
25.942673 102.41804 6.9745684
18.829742 102.64015 6.5730286
26.024115 102.57183 6.9749403
35.323418 102.87471 6.8410001
22.398888 103.15536 6.9516635
22.744318 103.39105 6.9153619
32.566818 103.09232 6.724215
35.406158 103.38522 6.9349384
19.982445 103.80479 6.5141563
22.731066 103.56024 6.9347401
37.166229 103.96686 6.5519605
18.28721 104.49142 6.811173
18.687632 104.27345 6.7360353
22.933163 104.13294 6.9584885
23.172037 104.34847 6.9397893
29.912327 104.08894 6.9752417
33.225845 104.42957 6.7924919
36.972282 104.30778 6.6999497
37.105003 104.36469 6.6776152
18.152134 104.68372 6.8471508
23.156946 104.61143 6.9699883
30.435455 104.96769 6.9886522
36.886097 104.90649 6.888731
37.098385 104.52568 6.7236795
8.9941177 105.42715 6.8847828
9.2622814 105.16458 6.8360825
18.2675 105.46535 6.9017057
23.461243 105.04912 6.9644012
23.701691 105.25608 6.9456739
30.493603 105.0013 6.9806585
30.52034 105.05335 6.9827738
36.485542 105.37194 6.6585674
36.828854 105.01768 6.9355779
8.3494797 105.85549 6.986052
8.6828232 105.63727 6.9339366
23.691681 105.60264 6.9850888
31.848507 105.74458 6.7974834
32.086365 105.88123 6.7683587
32.147583 106.00851 6.7767668
36.496773 106.25 6.8776736
36.720528 106.13505 6.7938881
30.957905 106.86111 6.5510545
36.310158 106.81268 6.5615454
33.801674 107.42706 6.683197
36.411457 107.45091 6.6875153
14.128344 107.78455 6.532146
22.773172 107.79526 6.5038204
33.983047 107.55096 6.6697555
35.134056 107.90244 6.5099583
35.794212 107.76436 6.8913469
36.630665 107.68176 6.6958981
35.70414 108.12778 6.9946089
36.757858 108.22802 6.7998385
-0.83465832 108.69285 6.5152307
10.782989 108.73606 6.9582295
14.395838 108.73796 6.5806065
36.702785 108.86862 6.9647999
10.753185 109.14958 6.9943752
11.901909 109.30316 6.8865581
12.950583 109.48278 6.7914367
14.521818 109.08726 6.5955615
13.337756 109.77201 6.7743311
12.755072 110.33619 6.8806577
14.719275 110.37257 6.6789546
15.053844 110.09382 6.6214938
15.615023 110.20903 6.5724411
15.187029 110.79461 6.6646214
29.886398 110.83828 6.6211295
30.190607 110.79637 6.5691075
42.294521 113.43633 6.6362662
42.729263 113.29857 6.555871
43.004303 113.19939 6.5029287
40.363911 113.8399 6.9639983
40.721901 113.8466 6.919888
41.261272 113.78216 6.8381138
41.561722 113.84514 6.8165865
42.072868 113.5063 6.6777878
-0.55058289 114.18799 6.8699565
2.1506805 114.08719 6.6696014
38.905327 114.37144 6.5956631
39.178394 114.26408 6.5402269
41.690472 114.20723 6.88589
2.0829086 114.89337 6.7283883
37.285343 114.90188 6.9112244
37.729721 114.79713 6.8312607
38.238876 114.58562 6.7232919
39.326321 114.82815 6.6309304
39.629402 114.72836 6.5740738
41.796814 114.52437 6.9475536
46.378555 114.67435 6.5454497
46.550282 114.78376 6.558322
2.1108131 115.05766 6.7373466
35.546917 115.46712 6.500576
36.942562 115.103 6.9962254
37.658218 115.38717 6.9535317
38.352512 115.16022 6.8188376
38.573097 115.07414 6.7737703
47.630905 115.4662 6.6429658
48.36689 115.08644 6.5089121
48.732365 115.22143 6.5193133
49.045296 115.38673 6.5403109
1.6835098 115.60918 6.8048201
34.571995 115.93053 6.6970773
35.343937 115.55786 6.5404606
47.830677 115.58672 6.6582031
48.175137 115.75269 6.6753159
49.287075 115.53322 6.5613241
49.770107 115.75224 6.5874457
50.140785 115.9131 6.6066236
33.33905 116.22921 6.9046082
33.727093 116.26864 6.8591747
34.207672 116.20507 6.7864189
34.71756 116.14503 6.7110682
35.493462 116.11314 6.6069717
49.674202 116.49988 6.7641954
50.395027 116.04373 6.624898
50.532291 116.13535 6.6397276
56.048801 116.27173 6.52634
51.296997 116.73538 6.7443185
51.570702 116.74435 6.7355833
50.972481 117.30922 6.888483
51.146084 117.34824 6.889936
27.774864 118.17134 6.9788814
99.766541 119.25633 6.6008053
23.399979 119.95797 6.5976324
23.704374 119.85936 6.5586448
24.031221 119.73996 6.5156202
99.43985 119.87897 6.6683722
99.579498 119.6082 6.6388068
3.7925148 120.42025 6.968401
21.304871 120.43678 6.8490686
21.772619 120.28918 6.7893476
22.195597 120.2627 6.7446327
22.748167 120.1712 6.6813493
23.192503 120.02068 6.6238241
99.239952 120.24115 6.7079391
3.9097462 120.6391 6.9740477
20.742067 120.59552 6.9193382
98.908798 120.8819 6.7792807
99.039261 120.60243 6.747673
4.8343811 121.33018 6.9512496
91.878098 121.46844 6.6973281
92.152817 121.30376 6.6813612
92.530045 121.18985 6.674346
98.712418 121.23866 6.8192005
91.808533 121.74503 6.732439
98.442688 121.79297 6.8827267
98.582069 121.52357 6.8519363
91.802109 122.15643 6.7869015
98.196533 122.24264 6.9342499
97.936913 122.79752 6.9995027
98.03186 122.61533 6.9781981
5.8484421 123.18681 6.9959736
96.338165 136.46332 6.5768495
23.302286 80.348305 7.4206715
30.609295 80.47551 7.4675179
32.657005 80.171631 7.0148687
95.449142 80.425735 7.0834408
95.07148 80.928268 7.0554156
95.625671 80.562508 7.1025724
32.064507 81.106178 7.0526295
33.314468 81.067986 7.4814258
94.714722 82.354004 7.0483174
94.740273 82.709846 7.0587406
96.262543 82.867859 7.2119398
94.997971 83.010803 7.0910344
95.778885 83.176201 7.1720071
95.086525 83.723618 7.117888
31.961611 84.457779 7.4213781
95.337029 84.124695 7.153717
95.791977 84.287354 7.2036433
96.054367 84.41098 7.2334547
96.273819 84.644791 7.2624955
96.511765 84.875946 7.2935543
98.344902 84.824532 7.4759002
31.96003 88.780823 7.0414009
20.675587 91.823433 7.2516136
111.40306 95.417999 7.0368733
111.57947 95.865227 7.0814142
111.061 96.800072 7.1141267
27.493958 97.221008 7.4160829
27.708294 97.421356 7.3714671
28.227865 97.17794 7.2013078
110.22707 97.466537 7.1063151
110.91212 97.137131 7.1291046
27.794798 97.926788 7.3917208
28.230923 97.748741 7.2501192
110.06721 97.690498 7.1123409
110.32246 98.255554 7.1740656
110.15012 98.703903 7.1974277
109.98532 99.043259 7.2130294
28.314661 100.18704 7.4819398
28.63876 100.41312 7.41746
32.476608 100.17043 7.2886505
33.231117 100.13094 7.0150709
19.137402 100.94656 7.3137717
28.624168 100.77753 7.4669409
29.255489 100.61696 7.2687287
18.745855 101.27979 7.4125876
19.251947 101.24268 7.3202653
18.685757 101.54287 7.44699
21.575693 102.35079 7.0163689
25.386913 102.36427 7.0842962
25.783102 102.35599 7.000845
21.416073 102.61038 7.0692186
21.719265 102.83214 7.0379701
25.772724 102.74462 7.0467377
32.637756 102.56015 7.1313472
21.294769 103.34793 7.1625452
21.733749 103.26578 7.0781898
22.677511 104.35112 7.0251589
33.413155 104.21404 7.2262878
22.93565 104.95096 7.0438714
23.001417 104.83849 7.0206623
34.934078 104.85672 7.4445477
35.098625 104.80605 7.3820362
22.803692 105.12994 7.0855322
15.341098 105.9291 7.3494859
36.635197 105.70397 7.1818171
15.37537 106.20242 7.3694386
22.971388 106.0976 7.1617942
23.050449 106.23593 7.1636343
32.354801 106.30542 7.3732166
36.443874 106.38263 7.4271431
36.583939 106.27306 7.3579273
32.395512 106.74003 7.4503455
36.442364 106.97365 7.0780363
36.602409 106.68097 7.4710569
22.316666 107.04179 7.3775015
24.188656 107.33252 7.0959654
30.582615 107.49567 7.3750467
36.321594 107.29602 7.1911516
36.528923 107.4053 7.1710887
22.827686 107.60468 7.3551731
24.252544 107.62057 7.1187115
30.665842 107.59379 7.3741174
36.247368 107.78323 7.3371906
36.548538 107.58219 7.2134304
15.966808 108.22679 7.4746962
16.13711 108.31373 7.4595151
24.782789 108.20386 7.0994406
35.919163 108.36057 7.0036058
36.379448 108.14743 7.4032602
36.695587 108.26707 7.36373
16.167809 108.67049 7.4889917
36.759239 108.53646 7.4226365
10.567162 109.354 7.0301847
36.482731 109.30902 7.1149902
36.643383 109.3468 7.092495
10.436295 109.60121 7.0636625
36.758812 109.62201 7.1371088
28.975651 110.11723 7.4183693
30.306929 110.40115 7.2218971
30.655771 110.455 7.1682973
33.77578 110.08736 7.2070131
30.617517 110.83759 7.2374191
31.037781 110.90508 7.17449
11.444408 111.4533 7.1076617
11.83152 111.08466 7.0374708
30.809746 111.14468 7.2540054
11.731571 111.67552 7.095787
20.683022 112.14912 7.2225471
21.073433 112.21445 7.1774755
12.99641 112.80031 7.0559888
13.079731 112.75803 7.0438838
21.242332 112.69157 7.2046113
21.628874 112.91184 7.1766462
13.488813 113.25112 7.0418887
40.17923 113.92509 7.0076408
41.355824 113.71952 7.462523
41.587307 113.81095 7.4576221
45.735336 113.98442 7.0782537
39.911751 114.08894 7.0805898
40.056725 114.03912 7.0499811
40.776104 114.42281 7.0466051
44.689651 114.32803 7.2612062
45.445641 114.49904 7.2419701
45.738701 114.0676 7.1008029
46.112034 114.15675 7.0960884
39.562634 114.85909 7.3041744
43.460499 114.73904 7.493577
43.558334 114.71024 7.4755421
44.200737 114.53674 7.3639412
45.304775 114.79894 7.3355498
35.497681 115.49733 7.2736998
35.694027 115.43146 7.2332368
36.280914 115.24229 7.1145463
36.673965 115.12769 7.0380464
37.357609 115.48598 7.0125933
38.853195 115.14941 7.4672422
45.126007 115.16568 7.45084
46.388477 115.05663 7.3203316
46.692551 115.14297 7.3220849
47.480762 115.34437 7.3245325
35.410782 115.51509 7.2895279
36.392494 115.95279 7.2329402
48.230522 115.74153 7.3876991
32.636917 116.47534 7.0356874
34.692543 116.03212 7.4900069
35.382114 116.45958 7.4701557
48.939857 116.09621 7.4459124
49.01017 116.10578 7.4450383
31.875114 116.7617 7.1817703
32.277058 116.59077 7.1016126
32.52388 116.5118 7.0563979
-4.0116425 117.11346 7.3143778
31.419577 117.48341 7.3514256
32.360588 117.17527 7.1779604
32.666077 117.07476 7.1218987
31.163559 117.56787 7.3989668
27.557802 118.29153 7.0190754
26.38566 118.57085 7.1939592
26.730827 118.69646 7.1663065
27.177904 118.61454 7.1024714
24.982876 119.67609 7.4924197
25.27235 119.5806 7.4459867
50.855793 119.88332 7.4836898
58.809509 120.40188 7.3806176
59.126923 120.55266 7.4100914
97.820908 122.95782 7.0176129
97.348007 123.42003 7.0673265
97.681747 123.23241 7.0501146
4.9619331 124.43029 7.1403618
81.180023 124.98784 7.0303888
80.452515 125.30896 7.0729728
80.718246 125.11364 7.0454798
81.013229 125.05082 7.0384307
96.38578 125.32349 7.299541
96.569641 125.05666 7.2673554
80.374062 125.75686 7.1405578
96.093933 125.74831 7.3512502
94.983398 126.49743 7.4332776
95.36422 126.37382 7.4230223
95.823593 126.16876 7.4032798
71.468895 126.93552 7.3257575
71.708183 126.79876 7.3013129
93.494667 126.99278 7.4769688
93.8405 126.85429 7.4632978
94.357193 126.71681 7.452816
94.715714 126.58543 7.4407616
71.363129 127.13394 7.3597631
92.7556 127.23127 7.4987745
93.126801 127.11441 7.4881458
3.5116882 127.85017 7.4639845
3.6216724 128.2141 7.4787784
3.7804012 128.66693 7.4955134
8.3540125 131.15677 7.3089199
8.519783 131.48373 7.3165708
105.72649 72.310104 7.9717155
33.187801 81.118332 7.5063634
30.163267 85.198761 7.8828735
30.377502 85.531204 7.7879744
21.969921 91.97625 7.832212
22.18721 91.902351 7.7753539
21.477976 92.123383 7.9603772
21.730917 92.048058 7.8944492
27.870934 96.843613 7.9159398
30.84824 99.23642 7.7388778
31.148104 99.355087 7.6463599
28.934454 99.853516 7.8812041
30.790197 99.554527 7.8020816
31.08082 99.721199 7.7207093
28.225945 100.35843 7.527647
29.224819 100.6562 7.8936539
27.035313 101.38715 7.9919147
28.51857 101.20731 7.551919
27.606583 101.72997 7.8766432
28.545784 101.66235 7.6049814
26.028042 103.16962 7.7718229
29.18786 103.27431 7.6622338
23.834608 103.71478 7.5593944
23.499687 104.12157 7.6757994
23.576962 104.09431 7.656683
26.062748 104.47282 7.937953
33.593147 104.11712 7.681282
30.146339 104.68491 7.6363206
30.743492 105.14801 7.5618296
32.757568 105.95795 7.7875924
106.34178 105.85583 7.5679545
32.827351 106.16573 7.8150206
33.001968 106.17768 7.7696056
106.41947 106.19457 7.6065707
24.43985 106.64447 7.7962966
24.599701 106.72189 7.7743187
36.264572 106.91572 7.6288323
105.76785 106.84083 7.6268835
3.7841759 107.31844 7.580555
14.262098 107.21926 7.6162758
14.843574 107.43021 7.5552764
24.757402 107.19989 7.8060846
36.446827 107.09423 7.6327286
36.518024 107.18426 7.6405697
105.47798 107.3222 7.6560974
105.63367 107.13258 7.6473017
3.6625233 107.80554 7.6315365
14.986 107.7874 7.5686636
15.339302 107.82574 7.5235329
3.738102 108.09678 7.6464691
15.08862 108.15998 7.5892186
15.609527 108.31158 7.5317879
36.364769 108.21259 7.9857736
15.957264 108.93501 7.5429449
36.119614 108.73789 7.6210523
36.637852 108.90867 7.5511966
104.70001 108.90398 7.7688184
5.2678642 109.31699 7.5822377
15.941795 109.06731 7.5576477
31.262737 109.45247 7.5842161
32.510815 109.39393 7.9837046
34.21088 109.47871 7.6259599
36.685955 109.07785 7.5869889
104.64983 109.12041 7.7885685
16.326916 109.8121 7.5764327
31.38488 109.9847 7.6593294
33.806702 109.64626 7.7518759
36.222736 109.96223 7.931427
104.67263 109.77472 7.8606467
16.381096 110.0707 7.5940385
30.536926 110.34333 7.9002528
103.77529 110.31905 7.8610592
104.48076 110.16627 7.8906703
30.38011 110.54518 7.9703579
30.568764 110.65775 7.9529204
31.312584 110.53967 7.7796907
32.672195 110.93532 7.5884113
103.63457 110.7053 7.8946929
14.748512 111.35862 7.9412675
103.84187 111.51216 7.9989424
7.6188545 112.39383 7.5825148
41.083302 113.8187 7.524713
45.768768 113.97404 7.7295933
46.044495 113.98803 7.7129202
7.7308846 114.1284 7.7114835
41.73687 114.24471 7.5561228
45.369942 114.08223 7.7953691
45.770687 114.01905 7.7436123
46.177181 114.13189 7.7477775
7.4814816 114.72378 7.785924
7.5476608 114.92954 7.7958379
39.623207 114.82735 7.9961419
40.319572 114.65005 7.8507013
40.670208 114.56511 7.7802286
41.912121 114.76571 7.6756363
43.301075 114.76821 7.5183411
7.6857796 115.10794 7.7960644
38.236164 115.36456 7.6030235
38.635258 115.26754 7.5245328
42.257877 115.11015 7.7279358
45.035965 115.34274 7.5069742
-13.493572 115.56519 7.8877902
36.458466 115.9124 7.9894142
37.236378 115.63934 7.8107262
43.763531 115.93987 7.7898984
44.070183 115.83249 7.7300992
44.873161 115.56235 7.5812941
34.357803 116.09119 7.5501633
34.759079 116.2604 7.5227251
42.850269 116.24188 7.968286
7.1973 116.93475 7.9965038
33.642376 116.92886 7.8106818
32.763245 117.14821 7.9830866
35.21653 117.3813 7.6665545
50.835114 117.19781 7.6597538
51.254086 117.27531 7.6662979
51.568272 117.38396 7.6851945
23.80666 119.46674 7.6138129
-10.812714 119.74509 7.9785795
23.9884 119.99712 7.651474
24.763313 119.76828 7.5299253
-10.648674 120.13189 7.9926691
22.657169 120.47849 7.8709636
23.354807 120.20792 7.7537718
23.663151 120.114 7.7049518
50.679028 120.21804 7.569603
22.354267 120.55231 7.9169798
50.451214 120.67941 7.6877737
59.970577 121.74714 7.6569734
60.355469 121.87897 7.682416
60.844601 122.16432 7.7399244
61.227116 122.36642 7.7807846
61.934769 122.47476 7.8016438
61.750835 122.58477 7.8248978
62.388779 122.95078 7.9000831
62.774944 123.12157 7.9353738
63.305042 123.29344 7.9713001
1.5890923 126.32402 7.5089974
92.183937 127.44325 7.5200787
92.570877 127.3474 7.5123143
90.772888 127.90369 7.5658875
91.250153 127.76378 7.5523186
91.694328 127.59694 7.5347691
73.311859 128.13963 7.5143609
88.413269 128.44534 7.615808
89.208351 128.44179 7.6243095
89.764648 128.25401 7.6036086
90.327675 128.06612 7.5834475
3.8864212 128.9364 7.5045805
74.824173 128.88551 7.6298232
87.683365 128.95169 7.6830602
88.219032 128.7632 7.660604
88.887489 128.56714 7.6389842
3.9547195 129.21988 7.5172992
4.0555687 129.47844 7.5260158
86.952324 129.21294 7.7151604
87.258972 129.09161 7.6998258
4.1437988 129.76636 7.5374832
76.435913 129.67142 7.7524877
76.659302 129.68448 7.7539039
78.051369 129.94275 7.7927084
84.78891 129.93109 7.8076882
4.3054733 130.22557 7.5541577
83.21283 130.44905 7.8798714
83.716423 130.30362 7.8594069
84.293091 130.09218 7.8296051
4.4596634 130.69279 7.5718269
4.5648537 130.96669 7.5810471
79.944878 130.86183 7.9391565
80.176224 130.85945 7.9387341
81.768677 130.93106 7.9515285
82.171967 130.82393 7.9354401
82.740349 130.62318 7.9054399
4.6494389 131.25998 7.5929842
81.232445 131.14381 7.9846573
81.613312 131.0258 7.9663057
4.8097625 131.73578 7.6105704
4.9576492 132.22694 7.6299725
5.0767212 132.62314 7.645587
103.62871 57.303802 8.0363655
103.82268 57.760361 8.0356798
104.1227 58.001446 8.0500984
104.36985 58.697636 8.0474243
31.335762 80.420708 8.0801029
29.062674 83.408226 8.3817577
104.12769 84.205208 8.0371819
20.487047 92.458572 8.2216053
20.83375 92.344353 8.1301737
21.24535 92.205406 8.0217037
20.335869 92.519989 8.2621174
21.247492 96.734146 8.299963
26.974213 101.33954 8.0030003
28.365444 101.4099 8.2730627
29.770483 101.03596 8.3837318
26.402258 102.40248 8.3038378
26.760458 102.49707 8.2170544
27.272579 102.19686 8.0330563
26.287704 102.57896 8.3599739
25.130877 103.60008 8.0441055
24.800335 104.31107 8.2174454
24.877157 104.6469 8.2444916
32.432293 104.74732 8.1980686
32.707325 104.87797 8.1405945
33.012535 104.85366 8.0381203
24.940577 105.02747 8.2817173
25.150202 105.18632 8.2541962
30.929522 105.22777 8.1521072
31.345926 105.33816 8.05408
32.898491 105.21951 8.1611156
20.379917 105.61063 8.4940224
21.373966 105.80084 8.3125963
21.741505 105.93858 8.2540913
25.125826 105.52852 8.3083506
31.166595 105.66046 8.1724367
21.828856 106.23467 8.2726574
33.636894 106.26775 8.1960974
21.770702 106.59893 8.329668
32.447021 106.92192 8.090271
22.938877 107.10552 8.1577225
32.986034 107.35431 8.0461836
33.008759 107.40679 8.0525827
112.04985 107.28541 8.0971184
30.073986 107.97681 8.2665472
33.50444 108.45057 8.1774139
36.174492 108.20068 8.030304
11.547951 108.94463 8.1501064
31.458832 108.66594 8.0717821
33.831787 108.82238 8.1884766
34.047966 108.79625 8.1283455
35.957108 108.64176 8.2172346
36.394577 108.61089 8.0980301
31.010902 109.16512 8.2824755
33.084648 109.25568 8.4838772
35.97039 109.37246 8.4340878
36.142479 109.36572 8.3896551
36.107704 109.66896 8.4907627
12.079063 110.87404 8.2585173
11.923365 111.27949 8.3185644
12.032005 111.23126 8.2991219
19.931276 111.38132 8.2795286
20.017439 111.44817 8.273366
20.518042 111.38034 8.1828871
11.900135 111.77656 8.3694944
20.660967 111.75684 8.2050934
21.279758 111.89133 8.1205378
103.78871 111.71597 8.0186548
20.748064 112.41986 8.2721224
21.623711 112.30569 8.1159105
103.55307 112.08986 8.0461903
12.77173 112.61118 8.3319931
13.742759 112.74577 8.213665
21.670704 112.57729 8.1421585
13.880943 113.15558 8.2355213
102.58209 113.11468 8.1033268
41.281635 113.72768 8.1391239
41.617264 113.77831 8.1089115
45.824249 113.97454 8.3965788
46.049179 113.97282 8.3790836
102.22833 113.7686 8.1587658
102.5519 113.53885 8.1517582
40.840111 114.48444 8.4327393
41.791553 114.25771 8.233427
45.617851 114.02335 8.429636
46.17981 114.0921 8.4112921
102.14042 114.06708 8.1891499
39.235924 114.95646 8.0870056
40.666279 114.54016 8.4746437
41.944698 114.70934 8.352849
42.036537 114.9837 8.4258337
42.696396 114.97285 8.3420401
43.299896 114.75085 8.2041588
43.558643 114.67416 8.1521759
101.85339 114.62905 8.2394905
102.0209 114.89921 8.2830925
-21.928852 115.27247 8.4679985
37.957844 115.46081 8.4149475
38.248047 115.37164 8.3462038
38.760517 115.1404 8.2066984
42.340775 115.06648 8.413763
45.161457 115.13699 8.1407738
46.427414 115.06467 8.0187893
46.697598 115.12894 8.0201273
47.487087 115.33011 8.0327148
47.558002 115.35181 8.0353193
101.6865 115.22043 8.3019991
34.45702 115.99059 8.3256798
34.722466 115.98288 8.2803288
37.780689 115.53345 8.4620209
44.07222 115.81378 8.4530029
44.780106 115.58043 8.3125668
101.80563 115.69263 8.3681221
34.306656 116.1091 8.3763151
34.766441 116.18909 8.3183012
35.302551 116.45876 8.2911339
35.649117 116.16418 8.1711893
42.461075 116.31705 8.032136
42.564266 116.3398 8.0266514
49.011238 116.05788 8.1800137
101.49871 116.24689 8.419013
101.57523 116.05367 8.3992872
34.956482 116.54515 8.3654461
35.010201 116.61495 8.3721638
50.93261 116.84465 8.3555679
51.07336 116.91232 8.3726244
6.3642044 117.21267 8.1056576
6.9069786 117.25513 8.0529289
32.016628 117.4259 8.1478004
35.351418 117.29848 8.4690685
35.602028 117.32232 8.4353828
51.68499 117.20214 8.4470348
30.410557 117.98311 8.499074
31.242462 117.7572 8.3277273
31.666611 117.65759 8.2437878
5.1350594 118.40332 8.3309097
31.515316 118.42043 8.4051285
5.2042446 118.64113 8.3433437
31.613148 118.69234 8.4395123
-11.805813 119.23743 8.0157671
4.8499985 119.11899 8.4193993
31.739651 119.10799 8.4959583
55.309303 119.33522 8.1211224
55.59634 119.42545 8.1418819
50.888687 119.80215 8.3479662
55.897629 119.54651 8.1707687
56.255646 119.56543 8.174221
56.753941 119.74683 8.2188721
57.099945 119.90932 8.2595539
50.721375 120.16348 8.4510603
57.386715 120.05405 8.296073
57.738373 120.22047 8.3384695
58.166046 120.39923 8.3846855
58.75071 120.35632 8.3784523
59.116272 120.49402 8.4155846
20.816038 120.63614 8.1188374
21.120876 120.8311 8.1023788
58.453194 120.51406 8.4147415
58.564003 120.51302 8.4152813
21.183256 121.02352 8.1161385
63.773228 123.46097 8.0066872
64.150169 123.49184 8.0142031
-9.144268 123.70006 8.1208553
64.156082 123.50432 8.0168095
64.726593 123.69437 8.0580759
65.169083 123.59924 8.0413952
65.594597 123.66675 8.0580463
-8.3587761 124.35869 8.1072807
66.34314 124.42722 8.2170448
-8.4428482 124.65146 8.1325512
66.694458 124.57411 8.2495451
67.166481 124.78122 8.2953863
67.53875 124.9467 8.3321381
67.790771 125.05493 8.3563576
68.162079 125.20386 8.3900833
68.688744 125.4317 8.4414635
69.091888 125.60534 8.4808216
-7.5144615 130.24173 8.4273176
108.72676 90.435722 8.7956028
109.03575 91.181931 8.8706903
109.15799 91.501068 8.9022923
19.179697 97.358452 8.8668957
28.915985 101.13424 8.7022314
28.661947 101.70644 8.8828173
29.020523 101.84093 8.7784996
23.176237 106.6 8.9214802
32.687767 106.94958 8.6558485
25.04678 107.75394 8.65833
25.363644 108.35889 8.6810398
5.4178963 108.7635 8.9823332
29.28017 108.50305 8.5665359
16.762993 109.32175 8.5710974
28.848373 109.2063 8.8123722
29.115782 109.2923 8.7643175
33.030548 109.45292 8.5468893
28.871983 109.93228 8.9529581
29.327366 109.92903 8.8425674
30.144409 109.63174 8.5856161
32.71804 109.56371 8.6529894
36.109783 109.82361 8.5376778
29.551155 110.16515 8.8379402
30.672497 110.42554 8.6295605
21.541353 110.86002 8.9417095
21.635313 111.13638 8.9623289
-3.9500732 111.90358 8.7538099
-4.0089226 112.10965 8.7762985
17.234259 113.25404 8.9484367
41.272366 113.72865 8.8210211
41.644047 113.76393 8.7793827
108.89878 113.84052 8.5931435
40.950207 114.06655 8.9854336
41.843002 114.29909 8.9368896
108.66571 114.25264 8.6261082
38.729149 114.95566 8.9003563
39.238804 114.7913 8.7680969
39.733715 114.75346 8.6788483
40.227848 114.69269 8.5854521
40.516167 114.62337 8.5217714
42.932453 114.85579 8.9900331
43.810356 114.78131 8.8640127
46.417816 114.60345 8.5729065
46.756676 114.74409 8.5996752
47.169582 114.92271 8.6366749
38.415627 115.03231 8.9754992
42.191223 115.33341 8.5145445
47.415501 115.02541 8.6584482
47.522232 115.06931 8.667922
48.250763 115.37737 8.7393541
48.549702 115.49307 8.7666063
35.698589 115.98415 8.9259262
36.496555 115.84856 8.7542582
36.702896 115.92006 8.7381411
37.221977 115.74765 8.6078615
37.544823 115.6564 8.5318012
48.780945 115.59355 8.7923231
49.246635 115.7884 8.8432302
49.642715 115.94302 8.8843775
-0.12500381 116.05759 8.6860676
35.767017 116.04349 8.9292717
36.093834 116.11729 8.8917341
42.49353 116.29687 8.7759151
42.789032 116.24247 8.7246056
43.099213 116.14139 8.6579189
49.886047 116.04742 8.9137306
50.26643 116.20197 8.957859
50.565521 116.32458 8.9938526
32.821972 117.13051 8.84657
35.198257 117.34446 8.5032644
47.334633 117.42121 8.6869698
47.700729 117.44674 8.6725206
48.238979 117.47872 8.6519823
48.746666 117.48685 8.6287832
49.138226 117.48251 8.6093321
49.725266 117.47913 8.5842743
35.816597 117.85693 8.5215874
48.697655 117.50992 8.6380596
49.369694 117.5075 8.6071005
49.618416 117.50998 8.5977678
35.935974 118.20114 8.5805578
54.328064 118.28708 8.7470989
54.668232 118.42893 8.7893572
36.131516 118.7859 8.6826868
54.898163 118.51669 8.8158941
55.249317 118.66012 8.8597775
55.781086 118.77318 8.8975677
56.104149 118.84147 8.9211712
31.830635 119.32108 8.5211678
36.296558 119.24844 8.7626352
31.933643 119.61201 8.5589924
36.40715 119.57428 8.8201828
99.330826 119.8015 8.7589731
50.606861 120.3735 8.5119734
98.942497 120.30354 8.8059387
99.113365 120.15441 8.7950134
47.794792 120.93741 8.8189697
48.101734 120.96753 8.8070402
48.67461 120.98821 8.7771511
50.402485 120.7975 8.6344128
50.551628 120.50546 8.5496149
59.583008 120.97568 8.5379391
98.899704 120.95628 8.8943806
99.029343 120.67699 8.8626842
48.373013 121.02493 8.8054485
48.944012 121.04116 8.7755871
49.256683 121.05329 8.7612495
49.751587 121.07416 8.7404137
50.245708 121.0916 8.7204189
59.894707 121.10271 8.5724964
60.295639 121.26322 8.6166468
60.710915 121.43548 8.6642437
91.918015 121.45148 8.5900126
92.253777 121.2159 8.5724726
98.721237 121.21368 8.9205742
60.962559 121.53694 8.6925983
61.313091 121.69039 8.7352867
61.771027 121.80991 8.7721663
62.223156 121.89809 8.8021231
91.859894 121.73376 8.6291752
98.387863 121.83871 8.9906673
98.573761 121.59711 8.9665604
62.723839 122.13803 8.8696012
63.238983 122.38877 8.940444
91.838821 122.03673 8.6735315
63.650963 122.57616 8.9943123
81.19281 124.94842 8.6721916
80.645454 125.20892 8.6978617
81.0354 125.01855 8.6786251
69.355263 125.71109 8.5051174
69.767952 125.89497 8.5469122
80.475616 125.68504 8.7751694
70.319153 126.10818 8.5966272
70.765976 126.19231 8.6198711
71.309402 126.5014 8.6886787
71.716385 126.65005 8.7242832
72.247948 126.91953 8.7855453
73.10067 127.41988 8.8972912
73.024475 127.5516 8.9212723
73.773689 127.60255 8.9450521
112.2322 93.24485 9.3330231
111.95847 93.821678 9.3424292
112.08945 93.595222 9.3410854
111.18912 95.34404 9.3668709
110.91351 95.908508 9.3786039
111.04739 95.678398 9.3759651
110.79074 96.13755 9.3824892
26.542576 102.86732 9.0658875
16.748976 106.78185 9.380168
21.636293 107.21429 9.3725548
21.559038 107.94927 9.49718
22.236731 107.51887 9.2753992
23.257662 107.93466 9.0990429
25.766428 107.60034 9.2940311
3.8568001 108.31587 9.1594362
25.600681 108.43716 9.4863501
23.08143 108.66959 9.2519054
25.636843 108.50899 9.4900017
22.646151 109.32312 9.453269
29.393627 109.4082 9.4884634
29.816858 109.42277 9.3771067
30.124031 109.38394 9.285387
30.841417 109.10846 9.0291519
31.000351 109.45389 9.068716
28.37632 109.86031 9.0588884
29.913212 109.71049 9.4179249
30.041647 109.69037 9.3788681
30.60202 109.59801 9.2081537
12.936796 110.85812 9.3896933
14.872444 110.89182 9.0663309
20.198677 111.21175 9.2535295
12.858377 111.71741 9.4989271
20.957609 112.27771 9.2563162
15.310191 112.83092 9.2162647
21.314095 112.63397 9.2391901
21.389725 113.699 9.3813362
39.466171 114.43304 9.3499565
39.755806 114.35839 9.2758389
40.258732 114.24015 9.1529694
40.711559 114.134 9.0451975
41.975861 114.68275 9.0518389
42.042683 114.89892 9.1179123
42.731857 114.92299 9.0379181
36.455189 115.48222 9.4565973
36.763744 115.41763 9.3806677
37.275333 115.29954 9.253108
37.772945 115.18048 9.1298761
38.177666 115.08652 9.032032
42.152424 115.07342 9.1640215
34.650959 115.95798 9.1061983
36.368996 115.50548 9.4794855
43.868694 115.8602 9.2349262
33.891403 116.47241 9.3746748
34.339783 116.04533 9.1850729
34.886093 116.17831 9.119133
35.245453 116.13422 9.0438175
50.650936 116.36846 9.0072851
51.239506 116.41897 9.0170355
33.475597 116.55748 9.473506
33.628273 116.5334 9.4388924
51.422367 116.61838 9.0823393
31.841755 117.61829 9.1196842
53.880432 117.62799 9.4255152
54.006569 117.71283 9.4550581
31.552738 118.35043 9.3255692
