# .PCD v0.7 - Point Cloud Data file format
VERSION 0.7
FIELDS x y z
SIZE 4 4 4
TYPE F F F
COUNT 1 1 1
WIDTH 1610
HEIGHT 1
VIEWPOINT 0 0 0 1 0 0 0
POINTS 1610
DATA ascii
43.483051 114.99254 4.9093847
43.740227 114.94152 4.8849602
44.236816 114.83983 4.8382988
44.669117 114.71996 4.7941198
45.324669 114.58824 4.7365179
1.3140335 115.07355 4.761404
1.7221375 115.28427 4.7553663
2.2635651 115.3597 4.7390757
39.277878 115.1925 4.6762819
42.836773 115.16974 4.9797826
43.229401 115.0555 4.9357972
46.837875 115.04961 4.7213354
47.261799 115.24942 4.7285094
47.658596 115.44558 4.7369022
2.3903301 115.69759 4.7478046
2.5016861 115.96372 4.7541614
42.140774 115.93464 4.5251513
47.887222 115.55724 4.7417264
48.193401 115.74593 4.7539043
2.6258564 116.29964 4.7626028
42.236347 116.20802 4.5487075
45.352592 116.29474 4.9828019
45.663494 116.31455 4.9674544
48.66378 116.10631 4.7828221
49.365967 116.28716 4.7768297
49.632023 116.41674 4.7833734
2.7848969 116.61943 4.769032
35.142918 116.73182 4.5704412
42.387405 116.67087 4.589447
49.904785 116.54943 4.7901869
50.243912 116.71897 4.799489
2.9643822 117.01349 4.777317
3.0245018 117.22552 4.7830153
32.459129 117.47412 4.8683696
32.524555 117.49219 4.8638425
42.543812 117.11658 4.6278543
51.872124 117.33653 4.8199577
63.572876 117.27422 4.5235505
64.451492 117.35708 4.5200248
64.690048 117.4041 4.5219841
3.3223877 117.80328 4.7932639
42.774845 117.78871 4.686192
65.918213 117.77702 4.5473599
2.191452 118.05797 4.8445091
3.4263573 118.06692 4.7989674
3.6000557 118.46609 4.8067865
27.405991 118.48194 4.5824237
27.679653 118.43121 4.5597262
63.982903 118.20552 4.6252851
64.094849 118.21152 4.6242085
3.20755 118.51321 4.8231993
3.6933644 118.74518 4.8131652
26.818741 118.78471 4.6399698
27.147026 118.58429 4.6063728
27.840885 118.55073 4.5531955
3.8244553 119.00381 4.8173075
43.207012 119.27678 4.8215709
46.705734 119.4711 4.5910931
4.2094345 119.87042 4.8324718
25.763079 119.83029 4.7664394
46.599884 119.77045 4.6316438
63.766411 119.58504 4.7918267
64.304604 119.83549 4.8118782
4.3455772 120.20679 4.8385673
24.297482 120.33316 4.8978167
24.753597 120.16327 4.8563647
25.210276 120.07169 4.8184586
46.608219 120.32788 4.6931896
64.826828 120.07276 4.8307142
65.113914 120.08623 4.8272643
65.776146 120.34444 4.846324
4.3527908 120.54926 4.8497415
4.5661988 120.75482 4.848208
45.462692 120.91669 4.8396401
45.553749 120.95243 4.8371258
46.439224 120.73021 4.7497873
66.439781 120.66987 4.8733859
66.894066 120.89877 4.8926783
99.208679 120.79163 4.65413
4.7633247 121.14496 4.8532319
38.220058 121.27335 4.6580534
45.745441 121.05068 4.8344646
46.183868 121.13623 4.8130445
91.820129 121.48856 4.7396402
92.230637 121.33519 4.7234063
98.777557 121.45219 4.7159071
4.9485683 121.63425 4.8616705
5.0864353 121.89399 4.8644342
91.677971 121.74734 4.7651949
3.9549866 122.0156 4.9133463
5.2139015 122.24982 4.870513
91.592056 122.13901 4.8035793
98.413498 122.23546 4.7898631
98.51358 122.05222 4.7724304
5.3737583 122.58528 4.8744946
97.473877 122.7993 4.845809
97.57988 122.60952 4.8274822
97.376411 123.10399 4.8751402
5.7141685 124.05124 4.9048028
7.3620987 126.24956 4.8966446
7.5696754 126.36167 4.8905835
7.6790524 126.5721 4.8913689
7.2926483 128.3194 4.9538469
7.5824089 128.36798 4.9420829
33.170692 78.608589 5.4498911
38.581989 79.462013 5.4174728
38.47094 81.892181 5.1080523
38.612041 81.799416 5.1057339
36.351143 83.645721 5.1307807
38.408569 84.474373 5.288763
35.224625 84.933304 5.1301289
37.30632 84.689438 5.388382
35.328613 85.080139 5.0965786
36.438858 85.234085 5.4209661
36.529762 85.287857 5.3989744
37.970764 85.480209 5.1731539
33.264961 86.086128 5.3204312
36.647007 86.433304 5.197825
34.98156 86.687889 5.4311991
39.713306 86.953758 5.162333
32.430222 87.4468 5.3354406
34.505005 87.388092 5.4155903
38.804485 87.407646 5.1666541
39.119995 87.303406 5.1519012
39.872845 87.215263 5.0938249
40.34911 87.098862 5.0766068
40.639889 87.219498 5.0292482
33.835968 87.792374 5.4899426
34.055298 87.609909 5.4713106
34.738728 87.698776 5.3263502
38.725513 87.718468 5.1132016
39.05938 87.724739 5.0728025
32.457245 88.24662 5.2525253
34.377274 88.114624 5.3366036
34.663322 88.08577 5.2848573
33.441895 88.723701 5.0106044
33.932716 88.697296 5.3468962
34.227036 88.741142 5.279994
34.673664 88.584602 5.2118797
36.071175 88.994339 5.27671
34.638397 89.012474 5.1589909
35.14909 89.298805 5.409143
36.145119 89.080795 5.2466249
33.32032 89.675423 5.3550577
33.764538 89.708138 5.2513518
34.900879 89.823898 5.3736362
36.494385 89.685898 5.0683565
33.205544 90.230957 5.3152418
34.213642 90.252434 5.4652576
34.516953 90.315872 5.3817558
33.861069 90.738197 5.1029677
34.1506 90.740623 5.2838073
24.810526 91.130356 5.0521898
25.06851 91.047195 5.0081892
34.235847 91.355255 5.2921209
34.262287 91.565071 5.2548914
34.862328 91.954636 5.043684
33.22126 92.368721 5.0852585
27.317074 92.673157 5.181993
30.270874 92.708565 5.0227265
55.384262 92.719597 5.4253917
55.541203 92.808853 5.4481053
31.459961 93.417648 5.113513
31.768839 93.180313 5.045557
55.401966 93.306183 5.4111843
55.512932 93.415222 5.4269867
29.958364 93.925743 5.0779748
30.024614 93.849167 5.0631495
32.817451 93.79068 5.080843
33.535088 93.920456 5.1769495
34.083576 93.995171 5.0022802
55.401646 93.68676 5.4027424
55.77319 93.753136 5.4643135
29.83597 94.250793 5.1055946
30.191521 94.391418 5.022686
32.737114 94.12336 5.0829868
33.252243 94.120087 5.0873852
33.599228 94.108513 5.1400108
57.279816 94.25322 5.0797501
57.560631 94.43454 5.1195869
29.948364 94.849838 5.0809402
30.107227 94.716728 5.042995
57.788151 94.668533 5.1535745
58.009636 94.907326 5.1875863
59.016701 94.86927 5.3278918
28.679739 95.289864 5.3874636
30.219486 95.116257 5.0946908
30.758297 95.412811 5.2583904
57.990036 95.010979 5.1864872
58.357533 95.162636 5.2407727
58.643471 95.304291 5.2838736
27.807684 95.571289 5.1416664
28.260597 95.755463 5.2735949
30.463081 95.865898 5.3410082
30.744978 95.716225 5.2627096
57.962051 95.868935 5.20121
58.084698 95.733284 5.2152433
58.571747 95.60891 5.2808232
29.30073 96.267159 5.2604179
29.660744 96.031662 5.1672602
30.243921 96.170845 5.4052982
30.840384 96.174644 5.2404618
31.118616 96.353645 5.2817016
54.623848 96.489761 5.2724552
58.142517 96.124733 5.2342019
27.679148 96.532967 5.2033343
29.932432 96.703911 5.1204643
30.265991 96.874451 5.0452027
30.784508 96.812241 5.2681713
31.041714 96.626259 5.1920815
53.798698 96.755043 5.1324382
54.240246 96.751122 5.2110553
27.339672 97.473831 5.3171997
28.640875 97.491447 5.4670568
29.834059 97.239967 5.1643558
30.196102 97.174927 5.3033514
53.885807 97.173088 5.160892
27.358824 97.766151 5.3285127
27.528595 97.844612 5.2972817
29.673044 97.524673 5.2158265
57.326672 97.850517 5.1877441
57.684158 97.684784 5.230916
58.053146 97.939705 5.2973495
109.99915 97.762802 5.3902621
110.144 97.518181 5.3813725
27.652739 98.158638 5.2888412
28.056992 98.405258 5.218749
55.252453 98.381836 5.4636221
56.67852 98.253029 5.1159506
57.114147 98.097618 5.1702352
58.161507 98.492249 5.3444843
109.79589 98.244049 5.4112515
26.335693 98.562927 5.0916991
26.584705 98.777374 5.0619574
28.133911 98.743965 5.223546
55.290966 98.657631 5.4874892
58.167297 98.585556 5.3510303
27.201073 99.406471 5.4622889
27.629734 99.185349 5.3576717
33.384136 99.268631 5.1747489
33.601501 99.422554 5.1111927
58.254589 99.369736 5.4160094
32.637661 99.6903 5.2479906
33.353748 99.670555 5.2253633
57.849297 99.719139 5.3833127
58.129848 99.736214 5.4252067
56.687344 100.18771 5.2535295
54.147896 100.8299 5.4636154
57.279877 100.93754 5.4047441
19.219568 101.39117 5.013164
52.283192 101.45413 5.2065125
52.670502 101.40571 5.2680616
54.052849 101.16062 5.4824057
55.170475 101.13866 5.1241937
57.624828 101.22897 5.481596
17.285664 101.92791 5.2430844
18.748491 101.60472 5.0744052
19.09252 101.81962 5.0531845
51.912312 101.58483 5.1586499
52.114807 101.78045 5.2191401
54.201508 101.61024 5.0372887
16.801003 102.33042 5.3177462
18.810879 102.31946 5.1135521
19.044043 102.05296 5.072937
52.021427 102.00445 5.2327871
17.196678 102.87617 5.3125505
51.483971 102.81201 5.2603531
51.560108 102.83486 5.2765212
17.129997 103.0193 5.3284783
50.445881 103.38732 5.1886172
51.829369 103.32353 5.3983297
31.956947 103.6792 5.2596087
32.111332 103.72134 5.2316651
36.393021 103.73964 5.0790858
36.630768 103.75694 5.0258641
48.877083 103.972 5.0639386
49.278976 103.87506 5.1024933
49.689777 103.82615 5.1535306
50.327026 103.7435 5.2342954
50.532986 103.53467 5.228178
51.362579 103.61794 5.3728013
51.61837 103.56429 5.4042525
32.571152 104.08681 5.1869774
48.927246 104.15965 5.109396
49.157898 104.06069 5.1219745
9.1859722 104.9115 5.1444063
31.222754 104.84863 5.1985283
49.379578 104.85563 5.317667
9.1959362 105.13439 5.1564951
46.8741 105.30645 5.1184072
47.161304 105.25874 5.1371164
48.914543 105.35835 5.3673277
49.228382 105.28705 5.3915796
7.2288227 105.78329 5.3246455
46.907043 105.63795 5.2062106
47.036194 105.63008 5.2171316
47.857368 105.60825 5.2996912
48.011227 105.53099 5.2984853
48.895065 105.674 5.4372053
6.9574065 106.14847 5.3635411
31.154585 106.36813 5.4209752
35.874928 106.23125 5.2646461
36.126225 106.35642 5.2491846
47.773987 106.13631 5.0237532
-23.17804 106.92093 5.1775875
36.280052 106.64523 5.1950617
36.743671 106.78857 5.2494006
37.166531 106.96745 5.2266154
36.492039 107.13463 5.374289
36.748646 107.21725 5.3535299
37.341461 107.18783 5.2554684
23.28686 108.15134 5.0528893
23.855577 108.34831 5.010253
-14.348057 109.44855 5.0280857
-21.582901 110.20259 5.2989879
49.836327 110.22884 5.023634
15.277524 110.64517 5.0519857
-18.493984 111.33374 5.2563238
-18.330414 111.50078 5.2592926
13.754862 111.83876 5.2188931
13.909742 112.10632 5.2224784
43.561497 112.9913 5.137763
42.25378 113.43705 5.3000035
42.750626 113.26839 5.2367043
43.267101 113.09206 5.1730595
43.80183 113.10437 5.1450715
44.241886 113.31865 5.1606288
44.561604 113.48004 5.1735625
61.239773 113.42875 5.0296831
61.594276 113.40465 5.0324736
62.463745 113.43857 5.0523005
40.87389 113.89568 5.4855471
41.262661 113.75804 5.4300971
41.748356 113.59909 5.3649521
42.002426 113.51894 5.3321857
44.802162 113.60063 5.1835661
45.217747 113.80637 5.201055
45.541367 113.96896 5.2156124
61.291233 113.73585 5.0711637
62.447144 113.64832 5.0791912
40.383495 114.46399 5.0620775
40.600323 114.397 5.034215
45.792839 114.07196 5.2231641
46.102489 114.23872 5.2399011
38.852859 114.96837 5.2708602
39.23288 114.84042 5.2174935
39.744953 114.6757 5.147872
40.13443 114.55592 5.0966558
46.3773 114.54049 5.2822199
46.708843 114.71818 5.3007183
47.126919 114.9271 5.3219066
53.191956 114.61963 5.1492529
37.58223 115.41243 5.4571095
38.261463 115.16508 5.3551264
38.618351 115.04414 5.3037186
41.898941 115.15721 5.0459132
42.244152 115.3558 5.0499201
42.587009 115.25607 5.0102396
47.382774 115.04309 5.3331156
47.740597 115.2212 5.3520083
48.153942 115.4194 5.372982
48.397381 115.54599 5.3873067
48.774239 115.645 5.3932343
49.240673 115.7477 5.3978467
49.609173 115.92448 5.4183364
52.555817 115.92209 5.3628316
33.932739 116.28519 5.3047686
34.250057 116.15813 5.2585435
34.736362 116.20757 5.2153034
35.305695 116.18347 5.1562972
35.727516 116.46411 5.1466436
49.87677 116.05135 5.4331841
50.213261 116.21342 5.4525652
50.623859 116.422 5.4783611
52.364918 116.29459 5.4258337
-3.7889137 116.69637 5.0069952
32.893616 116.97716 5.4878578
33.227406 116.87125 5.4417491
33.591099 116.75657 5.3917937
50.865036 116.54308 5.4934378
58.801659 116.81737 5.4783449
31.101093 117.96558 5.029706
20.919844 118.12522 5.0378227
21.279232 118.16457 5.0139985
21.588686 118.38859 5.0025797
27.434422 118.41111 5.4025593
27.719875 118.42012 5.3766036
29.760017 118.45624 5.1902919
30.259512 118.32885 5.1346335
30.749327 118.18559 5.0787578
21.436222 118.90377 5.0382271
27.202356 118.55076 5.4348087
29.409458 118.52965 5.2282028
29.508793 118.51093 5.2176123
-11.582935 119.27289 5.3857422
-11.495728 119.44676 5.3898458
21.557041 119.04959 5.036509
31.59026 119.3231 5.0896773
20.730431 120.7204 5.1757979
21.119036 120.89368 5.1559286
22.766888 120.76653 5.0301552
21.368769 121.15546 5.1502266
21.503574 121.31894 5.1481647
22.070536 121.08639 5.0959578
38.743073 121.07348 5.3915439
21.11314 122.45974 5.23035
21.18154 122.54477 5.2293653
44.462074 122.94063 5.1409183
44.559067 122.96809 5.1367707
44.799129 123.10035 5.1338415
45.142212 123.26083 5.126586
45.80529 123.59606 5.1159325
96.520325 124.97467 5.0594654
75.550751 125.17059 5.2550306
96.311981 125.3299 5.0953841
95.947296 125.87256 5.1509037
96.034683 125.67548 5.1308894
2.8123398 126.40868 5.0947013
95.439316 126.22164 5.1884403
95.81134 126.05789 5.1700692
2.9178085 126.73525 5.0998263
3.0796547 127.21902 5.1069798
92.643646 127.26842 5.3120837
3.2281647 127.62215 5.1121693
90.448021 127.89842 5.3941813
90.744286 127.71883 5.3729625
91.48172 127.7872 5.3743477
3.4256668 128.29271 5.1225014
3.5791817 128.70396 5.1272044
3.6839485 129.0351 5.1316843
3.9719505 130.09949 5.1474361
4.1204834 130.30243 5.1461678
4.2408676 130.63712 5.1494837
38.454071 76.808998 5.780951
38.068893 78.999939 5.5313759
38.135521 79.016464 5.5221906
35.367207 79.920006 5.7348251
38.147808 80.49929 5.9825335
33.97905 81.560997 5.7284961
37.475883 83.016891 5.6424322
37.715134 83.151932 5.5907817
36.762043 83.805725 5.6062751
31.195179 85.672859 5.7535162
32.546017 86.752975 5.8980899
33.932644 86.899719 5.5958056
32.994984 87.29377 5.7314091
33.850632 87.45945 5.5331459
31.749855 87.94487 5.9233522
32.753883 87.60363 5.7419744
33.086414 87.782066 5.6472983
33.721951 87.809082 5.6673203
32.777626 88.425888 5.6316833
33.020126 88.280937 5.5966549
33.865921 88.301582 5.8623457
32.347439 88.93457 5.6674809
32.630554 88.631538 5.6393347
32.379646 89.044449 5.6470385
34.177773 89.351402 5.6177258
33.22039 89.693924 5.7966313
33.781982 89.651398 5.6642127
34.251556 89.642464 5.5531311
27.426336 90.222878 5.7074761
33.408833 90.217117 5.6711001
33.670555 90.10495 5.6215172
34.155289 90.027573 5.5142398
23.863558 90.847031 5.8456316
24.209137 90.705711 5.7767887
24.682791 90.666359 5.684011
31.955793 92.978859 5.7516923
32.629776 92.681137 5.574554
56.291679 92.682663 5.5747404
56.576263 93.463875 5.6038556
28.11944 93.831573 5.5053821
32.272243 93.6548 5.5950541
56.558876 93.528252 5.5998607
57.262951 93.88166 5.7149739
56.280365 94.3339 5.5436707
56.718124 94.426956 5.6185284
57.209438 94.118027 5.7042599
29.774933 94.623566 5.9433107
30.026516 94.923645 5.8608603
56.656567 94.623657 5.6076813
57.712471 94.778 5.7915449
30.66272 95.223686 5.6611242
57.847515 95.098755 5.8177404
58.122089 95.332321 5.8690042
58.804379 95.465553 5.991529
28.139986 95.754135 5.5270095
30.432013 95.976067 5.7275839
30.915419 95.782684 5.7000418
31.043724 95.848694 5.7187586
57.749142 95.897957 5.8134894
58.408554 95.662354 5.9253197
58.593079 95.566925 5.9560843
30.907934 96.281494 5.5798674
31.076443 96.198738 5.6808324
26.805786 96.873886 5.8887839
30.466349 96.944931 5.7293525
30.710543 96.753784 5.6481323
31.060596 96.539368 5.5340948
26.917229 97.476158 5.8887038
27.096916 97.331032 5.8377609
28.261902 97.34182 5.9947705
29.69977 97.336418 5.5893989
30.247765 97.21627 5.8066301
56.793926 97.348839 5.6894379
57.637856 97.040115 5.8283606
26.806335 97.666306 5.9254823
56.754879 97.553596 5.6913748
26.897367 98.376984 5.9423251
27.710934 98.34127 5.740303
28.224718 98.139091 5.6024647
58.147209 98.081184 5.9689236
27.813963 98.665276 5.7347655
28.068405 98.934113 5.6896105
55.353638 98.930222 5.516592
27.172159 99.385544 5.9411163
27.631443 99.141617 5.8110871
57.772949 99.425743 5.9887505
27.01033 99.530083 5.9913445
57.652489 99.684013 5.9870458
19.678989 100.40126 5.6294093
56.709854 100.46881 5.8849378
58.715687 100.22093 5.5480051
18.97744 100.94826 5.7615924
19.276197 100.58368 5.6965156
19.772709 100.7202 5.6376858
57.089104 100.71414 5.9760437
58.15398 100.8306 5.5198956
58.645199 100.60499 5.5702248
108.3519 100.85884 5.5191684
18.916691 101.4011 5.800436
19.210379 101.1427 5.7428374
54.042854 101.35719 5.5027075
108.19484 101.20802 5.5359292
18.931694 101.58784 5.811132
19.107363 101.82657 5.8035898
22.488838 101.57587 5.9632201
22.702095 101.63491 5.9311428
54.214699 101.64017 5.565877
55.817307 101.78095 5.8631573
56.105648 101.95215 5.9336987
107.89743 101.78517 5.5626431
108.02422 101.55524 5.5522404
18.875755 102.20499 5.8614593
19.008003 102.031 5.8312988
26.193308 102.40136 5.9179802
107.67319 102.24393 5.5848393
18.243315 102.73622 5.9849758
26.27388 102.51102 5.9118896
31.534271 102.86522 5.9632359
54.079815 102.62778 5.6689959
107.41371 102.80351 5.6129398
19.623112 103.38181 5.8439884
31.790775 103.48175 5.6280298
32.357517 103.46894 5.8300624
107.30446 103.26436 5.6405716
19.470421 103.52577 5.8752284
19.885803 103.54191 5.8201246
20.01272 103.62537 5.8090873
31.818481 103.52491 5.6279478
32.298687 103.60199 5.6350684
107.07448 103.71498 5.6632476
19.116848 104.29499 5.9801226
32.81477 104.15701 5.6775503
106.78957 104.2746 5.6920094
106.46741 104.9429 5.7278113
106.58094 104.72138 5.7160931
106.28371 105.27262 5.7448893
35.997356 105.54236 5.699698
36.205616 105.57865 5.663836
105.93047 105.81367 5.7713909
106.04292 105.59488 5.7594385
36.263748 106.36842 5.7130351
36.568062 106.34931 5.8232203
105.7402 106.25335 5.7970963
31.082657 106.55472 5.9022355
32.144936 106.68213 5.7090654
36.444359 106.64468 5.5979605
36.649189 106.72535 5.6406035
105.47376 106.90038 5.8360796
105.53574 106.66656 5.8205829
13.88649 107.04377 5.9185715
36.784653 107.1322 5.6730056
105.31011 107.2241 5.8547859
22.900196 107.96141 5.7713432
23.757639 107.6832 5.635385
36.909435 107.78596 5.8366966
104.9698 107.98074 5.9009128
105.13307 107.65958 5.8819027
-0.65489769 108.24685 5.9905663
23.904324 108.47292 5.6855321
36.853195 108.20158 5.9642744
104.86008 108.30857 5.922699
23.975748 108.58543 5.6862817
35.931435 108.92845 5.9036913
104.64423 108.7339 5.9485321
35.660233 109.01494 5.9689054
104.35854 109.37439 5.9896297
104.50719 109.05563 5.969296
29.941999 110.22441 5.6486516
30.127939 110.13789 5.611064
30.03451 110.57837 5.6809101
43.42712 112.96832 5.6735091
43.631248 112.9417 5.657815
41.941406 113.45893 5.8672357
42.270054 113.35884 5.8241153
42.765053 113.19302 5.7580571
43.1828 113.0555 5.7050314
43.901711 113.05824 5.6705341
44.248177 113.22907 5.6923599
44.63657 113.42625 5.7189951
41.282639 113.67754 5.9616642
41.691692 113.55128 5.9045596
44.905987 113.55383 5.7361012
45.254082 113.72571 5.7604909
45.699982 113.90233 5.783534
39.801689 114.42025 5.6720996
40.239338 114.27078 5.6068487
40.616051 114.15172 5.5536137
45.874275 114.03188 5.8056116
46.253216 114.20911 5.8322711
46.65501 114.41635 5.865366
37.490597 114.965 5.9954467
37.763416 114.88882 5.9531446
38.258865 114.85568 5.8969641
38.748634 114.77518 5.8343434
39.238663 114.61176 5.7581568
39.548759 114.51154 5.7113714
46.896267 114.52825 5.8830042
47.238098 114.70309 5.9119487
47.674667 114.91248 5.9467139
53.190651 114.82097 5.9254785
53.572266 114.83286 5.9335852
47.911373 115.04457 5.9697361
48.310814 115.06628 5.9679189
48.546143 115.18496 5.988904
53.040466 115.09788 5.9750009
35.891666 115.97762 5.7125282
36.205509 115.87151 5.6640468
33.961155 116.2422 5.9628615
34.274368 116.12061 5.9098525
34.760513 116.17586 5.863699
35.253117 116.18804 5.8116364
35.646389 116.0539 5.7497377
50.983433 116.59751 5.5000539
51.289581 116.74973 5.5192347
51.664497 116.92213 5.5406151
31.731211 117.39173 5.6550126
32.235928 117.20784 5.5817404
32.631161 117.06946 5.5252638
51.86718 117.03194 5.5550489
29.925245 117.98013 5.9126568
30.236395 117.87679 5.8677392
30.74371 117.6984 5.7936869
31.209736 117.57367 5.7302299
29.432766 118.16333 5.9861374
29.709372 118.05887 5.9446654
60.721275 118.39371 5.7180958
61.273312 118.64403 5.7573614
61.740517 118.87207 5.7930722
62.219788 119.10342 5.8294439
62.695877 119.3255 5.8645377
25.376801 119.95783 5.7120686
25.694992 119.81986 5.6718049
26.126221 119.73226 5.6247759
63.261681 119.62062 5.9108868
63.795174 119.87922 5.9518418
24.290413 120.31007 5.8407931
24.75856 120.20419 5.7887383
25.145935 120.05103 5.7407784
64.166451 120.06821 5.9817052
22.996466 120.50999 5.9780774
23.148605 120.55568 5.967082
23.698526 120.55008 5.9146557
25.296099 120.7403 5.7786355
25.742027 120.55988 5.7232552
23.771393 121.26429 5.9613647
-13.961861 121.75507 5.570322
-22.721897 122.45798 5.9058042
-20.658615 122.6497 5.8421206
100.68961 130.30103 5.5693712
36.807232 79.336197 6.3349352
37.488167 79.865974 6.1639652
37.5769 79.98996 6.1328568
35.822449 80.134819 6.3340015
34.992409 80.572441 6.383173
35.071663 80.616486 6.3642797
94.747345 81.283875 6.1327901
94.200172 81.875633 6.104568
94.258438 82.052299 6.1110568
94.53289 82.271225 6.1328135
94.045372 82.919991 6.1106057
94.546295 82.569481 6.1385064
36.857517 83.261742 6.2575173
38.108498 83.275497 6.0887604
94.00695 83.133148 6.1116939
29.412226 83.889145 6.2813921
94.299492 83.857178 6.1450391
34.760166 85.403893 6.1903486
30.173351 86.354973 6.4771872
32.838921 86.384796 6.4152579
31.819389 86.681152 6.064105
33.260609 86.538734 6.2950697
31.0812 87.119278 6.1761661
32.139725 87.314667 6.4286966
33.123135 87.294533 6.1992149
33.783455 87.383316 6.0358877
32.532143 87.75869 6.263814
24.933716 90.494827 6.2576208
25.498152 90.40097 6.1316128
25.772625 90.192375 6.0737371
23.918921 90.819153 6.4858904
24.206617 90.670891 6.4211917
24.711466 90.582573 6.3069901
23.946413 91.092445 6.4779263
24.024626 91.298088 6.4589739
27.127893 93.383026 6.2516084
27.098202 93.733696 6.2568369
29.278288 94.383423 6.0997081
29.575962 94.355469 6.2261114
29.842224 94.718498 6.3411427
30.086842 94.76799 6.2559714
30.228634 95.183647 6.1954384
30.602621 95.429131 6.0607481
59.31234 95.31086 6.0784793
30.253614 95.947853 6.1752472
30.688257 95.530746 6.0290437
29.89295 96.459999 6.3031607
30.209909 96.234764 6.1902528
29.71287 96.637581 6.3692183
30.034698 96.602371 6.2543993
28.157509 97.401627 6.2273006
59.474571 97.441261 6.1757102
59.682465 97.495514 6.2157006
26.263025 97.805679 6.0659814
27.41917 97.711487 6.2497411
27.703333 97.781891 6.1729798
28.27375 97.726326 6.4166203
58.462219 97.783691 6.010025
59.428997 97.640465 6.1770749
59.661957 97.560715 6.2151403
27.685547 98.238892 6.2024989
58.399864 98.226791 6.022687
27.737267 98.503365 6.2033997
28.193295 98.782051 6.0921059
27.767258 99.178223 6.2400103
28.141129 99.037453 6.124136
57.917458 99.309509 6.0061679
19.919569 99.925575 6.2876921
20.007057 99.987457 6.2767601
57.746399 99.867317 6.0186996
20.074125 100.26521 6.2841487
57.837635 100.22142 6.0650496
19.278864 100.88333 6.4644146
19.681982 100.6246 6.3766751
57.33242 100.83282 6.0307732
57.80769 100.76829 6.109468
58.24865 100.54424 6.1674604
19.287445 101.06371 6.4758039
21.220615 101.41164 6.1686568
58.176636 101.12733 6.2103496
21.21162 101.71885 6.1932645
17.965714 102.55066 6.0096474
25.477188 102.9258 6.1145525
25.891037 102.69764 6.0080242
31.272617 102.72481 6.0182471
31.70784 102.96471 6.2980995
17.917213 103.0403 6.0509644
26.264946 103.03014 6.4982133
32.399475 103.32955 6.1448941
18.963566 104.43549 6.0113578
33.187008 104.28017 6.1110559
9.3462687 104.88138 6.2355709
9.6907854 104.59604 6.1823649
19.089243 104.55999 6.0037627
30.440626 104.6178 6.1598415
30.52047 104.61555 6.1391983
9.31987 105.22453 6.2603736
17.93615 105.17477 6.2059193
31.445087 105.21906 6.014739
31.56938 105.34364 6.2154164
7.8662224 105.82959 6.4464269
30.869579 106.78025 6.4456873
32.753403 106.97099 6.0581417
36.077335 106.64994 6.0177469
36.539829 106.96033 6.0199118
23.351604 107.11209 6.3116999
32.826523 107.00921 6.0503707
33.361897 107.14004 6.3793626
36.479465 107.19211 6.10464
36.731537 107.23151 6.0692482
22.80987 107.84766 6.4751101
36.467167 107.52469 6.2117653
36.660568 107.70847 6.2337308
-0.69335556 108.47037 6.005806
23.84252 108.27782 6.353353
24.181635 108.49886 6.3227658
36.822105 108.32595 6.4018464
-1.5726585 108.83591 6.0852008
24.288847 108.58353 6.314837
36.823643 108.57854 6.4827557
-2.1216335 109.21262 6.143157
35.262951 109.41747 6.1325874
35.539196 109.19671 6.0330791
11.74272 109.73938 6.3140211
12.372019 109.83074 6.257093
29.765881 109.8027 6.1721001
30.085155 109.96174 6.1427507
104.15536 109.79709 6.0166912
-5.283596 110.24748 6.4127865
-4.5333939 110.38863 6.3706112
-4.4664688 110.20479 6.3557839
11.761381 110.36635 6.3544474
12.019854 110.43311 6.3330803
29.914555 110.07349 6.1886005
30.184372 110.05302 6.1403503
103.91917 110.32622 6.0517673
104.0032 110.11301 6.0371461
15.325808 110.54353 6.0101776
103.61727 110.72622 6.0742087
103.41199 111.37019 6.1212735
103.52303 111.16415 6.1077638
103.19158 111.78107 6.1485705
102.94421 112.29269 6.1840096
102.70138 112.79141 6.2191005
42.309208 113.4398 6.3900771
42.735146 113.30205 6.3313589
43.2295 113.13216 6.2638474
43.722996 113.07657 6.2288198
44.251686 113.32093 6.2711763
44.573471 113.47095 6.298449
102.44388 113.30175 6.2552295
40.447479 113.96154 6.0896416
40.764122 113.86414 6.0425596
41.025455 113.76953 6.0011945
41.778404 113.62219 6.4697304
42.059147 113.53259 6.4288001
44.807873 113.59019 6.3214593
45.222187 113.78704 6.359715
45.578903 113.95034 6.3920989
102.24808 113.71072 6.2850018
1.9089355 114.3308 6.1556153
38.93322 114.48161 6.3416557
39.245892 114.37336 6.2876415
39.745365 114.20303 6.2037749
40.180176 114.05972 6.1338873
45.836304 114.06816 6.4161119
46.18803 114.14098 6.4281502
46.761215 114.32085 6.4647441
47.054825 114.42989 6.4884481
101.95032 114.3206 6.3299065
102.1078 114.0182 6.307868
-0.31019592 114.58569 6.3192835
2.0697594 114.72491 6.1660295
37.427807 114.99001 6.0066433
37.927685 114.67477 6.4877257
38.289982 114.67786 6.4501977
38.676323 114.56564 6.3857856
101.74398 114.72346 6.3597012
1.6810169 115.12329 6.213799
35.962685 115.49176 6.2598581
36.26923 115.38602 6.2057242
36.759983 115.22349 6.1213732
37.206783 115.07139 6.0450726
48.664116 115.27158 6.0050402
52.920563 115.35602 6.0220113
101.59288 115.0257 6.3824205
34.797436 115.88019 6.4681487
35.23473 115.72679 6.3877854
35.689358 115.57713 6.3070407
48.358997 115.74529 6.1064572
49.349392 115.57678 6.0594583
49.680347 115.75281 6.0921121
52.723919 115.75929 6.0963783
55.786041 115.9053 6.1711426
33.739243 116.47344 6.021585
49.25946 116.19168 6.1850238
49.517204 116.31462 6.2070627
50.355335 116.08878 6.1551366
50.698132 116.24619 6.1850371
52.425571 116.36096 6.2093768
52.539246 116.1333 6.1662879
56.290188 116.14971 6.2261467
56.810349 116.3987 6.2826023
31.569332 116.98096 6.3506355
32.358624 116.94005 6.2497234
33.271332 116.6308 6.0981698
33.580505 116.52488 6.0471945
50.418816 116.76518 6.2900324
50.642094 116.85985 6.30758
51.289734 116.6578 6.2650838
51.698002 116.74749 6.2824593
52.208004 116.77682 6.2891092
57.266266 116.62934 6.3345222
57.708256 116.83613 6.3820696
30.864298 117.216 6.4704261
31.245398 117.08714 6.4052835
31.808105 117.06018 6.3328743
32.095234 117.02379 6.2931104
0.29077911 118.15079 6.4699259
27.435402 118.40614 6.2340412
27.784887 118.38847 6.1928873
28.486824 118.48418 6.1247425
28.778465 118.37955 6.0812979
29.16564 118.25295 6.0250702
26.949162 118.78329 6.3286858
27.223629 118.51389 6.2692943
27.950932 118.58154 6.1947479
28.194466 118.58021 6.16746
25.975651 119.31992 6.4955635
26.246336 119.23169 6.4555054
26.575962 119.11968 6.4063234
64.723801 120.34125 6.0250912
3.9748077 120.77581 6.3552136
4.8918991 120.55378 6.2806067
5.1725903 120.80504 6.2741771
20.384735 120.82457 6.2500916
20.780851 120.69233 6.2024498
21.194088 120.83736 6.1737795
21.813766 120.73222 6.1069469
22.217569 120.78647 6.0726042
22.731455 120.62213 6.0115747
65.342926 120.64549 6.0735283
65.750549 120.85131 6.1062675
5.4038639 121.17209 6.2770391
5.7319126 121.30188 6.2610064
66.169785 121.05538 6.138907
5.665699 121.95555 6.298944
21.824936 122.61289 6.2462406
6.1362762 123.39359 6.3391566
22.010941 123.17096 6.2704811
6.1746712 123.91766 6.362875
32.942741 80.275925 6.7590799
33.829922 80.350418 6.5996666
36.069641 80.821716 6.8570008
35.714859 82.641792 6.5527539
32.076653 86.198029 6.6215935
31.26836 86.560097 6.7595234
24.767708 90.439957 6.9345608
25.186586 90.332474 6.8294067
25.628647 90.278908 6.7175312
23.846745 90.767357 6.502789
24.565374 90.512512 6.9850969
29.369379 94.770859 6.5016708
28.215435 96.894127 6.9082441
29.163433 96.801796 6.5676675
27.713648 97.220955 6.6159058
28.19726 97.251312 6.9258518
27.485054 97.96299 6.7226429
27.938717 97.621048 6.5604563
28.141069 97.676521 6.9626527
27.444359 98.264503 6.7523084
27.643194 98.188179 6.6842256
28.257666 98.612778 6.5121598
27.730988 100.83878 6.8706651
28.739811 100.68584 6.9839315
19.207682 101.29494 6.5062628
21.114925 101.26404 6.8694544
27.487675 101.20792 6.9878459
27.647787 101.06008 6.9208026
18.916204 101.63273 6.5811434
19.214056 101.79776 6.5422859
20.703503 101.7049 6.9903083
21.935318 101.8065 6.7432384
22.353828 101.95863 6.6693716
22.704062 101.79366 6.5829248
24.440323 101.86442 6.8174691
18.776508 102.45416 6.6671734
22.119257 102.19787 6.7383862
24.354551 102.08579 6.8595133
24.574131 102.09853 6.8075919
18.813389 102.67989 6.6783786
22.082823 102.63612 6.7842669
20.060589 103.80949 6.5567684
18.189161 104.20843 6.9082799
18.616474 104.383 6.8502975
19.814102 104.37109 6.6461134
30.345768 104.37595 6.577405
30.765064 104.1898 6.8476863
18.21653 104.65504 6.9412088
30.562078 104.90302 6.6143227
22.374872 105.3504 6.9896312
18.325394 105.50073 6.9959564
31.931763 105.73122 6.832263
32.056477 105.90488 6.8383369
14.745236 106.36069 6.7264152
22.947535 106.31016 6.9801531
14.421705 106.80377 6.8040261
15.036942 106.68636 6.7122216
23.276684 106.77483 6.9682217
23.641283 106.85152 6.9055581
14.063074 107.41849 6.8998938
30.988773 107.00844 6.936254
31.037745 107.20791 6.9681869
33.643276 107.3442 6.7893567
24.113918 107.73878 6.920382
33.109383 107.73064 6.5843596
35.138626 107.88651 6.5970421
4.2721825 108.35295 6.9736691
14.389158 108.17023 6.9154315
24.57255 108.29268 6.9018922
4.4108448 108.78722 6.9881725
36.806744 108.87498 6.5815635
37.011311 108.85546 6.5400658
14.584269 109.44271 6.9920368
14.728065 109.69326 6.9935341
29.966488 109.64927 6.6659069
15.403461 110.13065 6.9403558
15.596096 110.14078 6.9157696
29.410713 110.17278 6.8682761
29.680698 110.25096 6.8301377
30.041426 110.37202 6.7830544
29.977638 110.61645 6.8401752
30.103659 110.81505 6.8532796
8.0008926 111.7248 6.8229375
8.2143707 113.75412 6.9395471
39.882362 113.99019 6.7120409
40.328548 113.93543 6.6591516
40.740334 113.82079 6.5958471
41.26387 113.79106 6.5486856
41.547821 113.69695 6.5043049
7.9866219 114.27788 6.998147
38.453552 114.47706 6.9792356
38.683434 114.40661 6.9367132
39.736252 114.05422 6.7419982
40.149071 114.07735 6.7110939
40.945381 114.26578 6.6949196
47.180984 114.48262 6.5002604
8.3539829 114.58405 6.9825616
37.747875 114.73899 6.5213871
38.393833 114.50868 6.9938397
39.296322 114.78851 6.973618
39.505688 114.72173 6.9362078
46.456722 114.77426 6.5791073
46.653908 114.8632 6.5981016
47.318485 114.56817 6.5200233
47.839588 114.83102 6.5810695
48.112511 114.93685 6.6059303
35.853916 115.36678 6.8815646
36.022007 115.31956 6.8502874
36.782082 115.05769 6.70117
37.43206 115.47581 6.7184434
37.534534 115.39939 6.6902628
38.152725 115.21555 6.5832138
46.943798 115.00913 6.6300521
47.115822 115.09462 6.6490264
48.851639 115.33209 6.7011247
49.035519 115.39694 6.7172747
34.571918 115.97531 6.5128388
36.208309 115.87887 6.9492955
36.918941 115.61079 6.8063202
37.142822 115.56337 6.7702584
47.921722 115.65266 6.7778735
48.198467 115.77771 6.8067799
33.96912 116.15874 6.6208501
34.079849 116.12764 6.6013422
48.892433 116.12303 6.8885293
-3.8438034 116.51408 6.6624508
31.995644 116.74417 6.9834065
30.267313 117.41248 6.572444
30.621082 117.29149 6.5112391
28.772141 117.91177 6.8323045
29.271446 117.74656 6.7452202
29.750345 117.58724 6.6620636
100.29362 117.82512 6.6064777
27.904556 118.19629 6.9843531
28.252377 118.08801 6.924027
99.937088 118.41003 6.6528344
100.082 118.11293 6.6280055
99.729652 118.78898 6.6841245
24.894142 119.46764 6.635006
25.235031 119.36597 6.5851917
25.650339 119.39463 6.5405378
99.449417 119.39522 6.7364883
99.529388 119.19254 6.7184362
22.780266 119.98741 6.9346733
23.412083 119.95936 6.8577881
23.817671 119.8211 6.7962894
24.286215 119.66846 6.7261138
24.669914 119.5428 6.6686902
99.23951 119.77863 6.7690735
22.371847 120.11471 6.9957061
22.725925 120.05748 6.9482269
23.104687 120.04861 6.9028807
98.949265 120.35921 6.8198991
99.051285 120.1768 6.804172
98.74041 120.75239 6.8544617
91.912064 121.42119 6.7239628
92.314995 121.27521 6.7192822
98.455719 121.32078 6.9055495
98.553284 121.13767 6.889173
17.733952 121.78981 6.5754523
91.789383 121.79577 6.762177
98.229179 121.70895 6.9399834
91.728867 122.09125 6.7935529
97.941772 122.29325 6.9940639
98.017326 122.07879 6.9732146
80.842255 125.12468 6.899888
81.136185 125.0183 6.8918085
80.324005 125.88683 6.9892039
2.7415733 126.06993 6.7104812
2.9972534 126.69962 6.7243223
3.0869694 126.92286 6.7292538
3.2413113 127.32072 6.7383809
3.4011383 127.81619 6.7519321
3.5762672 128.30772 6.7641244
3.7392185 128.81409 6.7778201
3.9158313 129.29985 6.7894425
4.0813355 129.82213 6.8035617
4.2303352 130.2496 6.8140974
4.362133 130.68192 6.8260169
4.4815788 131.02686 6.8344779
4.5391617 131.20245 6.8389955
8.7092676 133.6973 6.6615739
29.454483 81.153908 7.2958283
29.951418 84.935867 7.3347626
27.581665 89.95787 7.3814483
26.140959 90.420425 7.1853437
27.41643 90.164795 7.4151731
23.944956 90.798744 7.1405282
24.214121 90.665817 7.0730348
24.50392 90.544441 7.000248
25.241056 90.90918 7.4242554
25.703705 90.768448 7.2948608
26.119511 90.604782 7.1818447
23.164814 91.339523 7.3375573
23.939672 91.334595 7.1314478
24.090754 91.167336 7.0943866
24.991301 91.009544 7.4937415
23.1842 91.521591 7.3299327
21.284931 96.860634 7.2394643
21.58609 97.379295 7.1914988
27.90947 97.287933 7.0300817
27.376356 97.680267 7.2375908
27.969315 97.783844 7.0292039
18.873812 99.952347 7.239049
19.359571 99.996414 7.1407199
19.593424 100.26946 7.111393
19.362686 100.91537 7.2071304
19.594398 100.67281 7.1406651
18.808317 101.16365 7.3414898
19.147089 101.21589 7.275033
27.339954 101.30517 7.0454974
27.804625 101.46896 7.4102468
28.72599 101.32373 7.0660391
18.305664 101.53107 7.4745927
18.753716 101.7408 7.3980761
20.652245 101.78316 7.007391
21.810398 101.95905 7.4652209
22.762823 101.54716 7.1961217
24.329691 101.70078 7.4300466
24.653286 101.71426 7.3407884
26.257454 101.79029 7.4433813
21.727631 102.05128 7.4938121
24.376923 102.00044 7.4475083
25.26741 102.22639 7.2239141
25.86767 102.40244 7.0770583
26.342747 102.05324 7.4475746
20.250898 102.7349 7.170948
22.326958 102.70768 7.4111366
22.536032 102.8064 7.370254
25.908625 102.63478 7.0925508
20.265133 103.25873 7.2144365
20.65415 103.42443 7.1495042
22.476742 103.01764 7.4057908
22.697634 103.25907 7.3774586
20.646029 103.56509 7.1641307
22.802036 103.72514 7.4017286
23.638121 103.92548 7.2239704
26.071838 103.51849 7.1560159
22.945383 104.16973 7.4163299
23.138853 104.31671 7.3868198
23.709103 104.31962 7.2518187
29.844702 104.06293 7.1226993
9.2133961 104.92771 7.3691835
19.949572 104.89374 7.4336944
23.135929 104.92487 7.4580221
23.664814 104.5295 7.2866187
30.413498 104.97837 7.124959
9.2119322 105.20825 7.3895779
18.192036 105.4579 7.0146976
22.342213 105.41074 7.0025735
23.349297 105.25569 7.4475136
23.564478 105.27187 7.3990536
30.475473 105.03683 7.1179404
9.1731453 105.50349 7.4162059
18.275024 105.77142 7.0284419
22.966003 106.71546 7.0225968
23.08222 106.98045 7.0303578
24.410397 106.95219 7.4219322
24.453415 107.2711 7.4565144
31.065706 107.42731 7.0104609
-1.0037804 107.96136 7.4808631
22.476103 107.58904 7.2206197
22.740784 107.72475 7.1850553
24.900688 107.97845 7.4573932
-0.57964516 108.09033 7.446373
24.137768 108.44993 7.0047603
4.1658211 108.65291 7.0040579
10.967936 108.68622 7.414248
11.059237 108.82644 7.4130158
4.3451042 109.00238 7.0089464
10.868294 109.0089 7.4529605
11.709931 109.38998 7.3706317
12.712378 109.39797 7.2375031
12.095505 109.92516 7.3622231
12.72961 109.72527 7.2616463
13.121551 109.89697 7.2234416
29.920841 109.91822 7.2934885
30.15424 109.54266 7.1639872
33.570976 109.94658 7.0560684
12.055147 110.05621 7.3782067
13.242651 110.28423 7.2390499
14.368023 110.28367 7.0899367
29.92775 110.03044 7.3154645
30.21384 110.36474 7.3244691
30.596806 110.36954 7.2441177
33.402618 110.00406 7.1060205
33.740803 110.21658 7.0938921
35.75885 110.04125 7.1434116
15.025878 110.89626 7.0543556
30.382671 110.50459 7.3184352
30.679979 110.71268 7.3011746
33.880123 110.605 7.1708302
11.920832 111.27145 7.4955792
30.744379 111.03779 7.3589973
-12.225075 112.802 7.0205355
13.115869 112.77966 7.4652181
13.24095 113.01502 7.4690452
43.590393 113.14913 7.376771
40.335903 113.94125 7.2357736
40.708088 113.86871 7.1837764
41.2635 113.76753 7.112236
41.562138 113.81999 7.1071682
45.751732 113.99108 7.0062418
7.9705887 114.4253 7.0098605
8.1117764 114.49544 7.0006037
39.903793 114.08364 7.3160739
40.067074 114.03506 7.2869143
40.849457 114.47935 7.3535728
41.681484 114.1788 7.2053742
44.368103 114.42517 7.1543989
44.745361 114.29961 7.1090603
45.23312 114.14893 7.0569878
45.737549 114.05422 7.0243573
46.128082 114.17079 7.0545936
36.934246 114.9851 7.2863817
37.366039 114.87442 7.2053361
37.71122 114.72984 7.1274447
38.213882 114.60052 7.0372772
38.922436 114.94369 7.0507884
39.098564 114.88853 7.0188546
40.938583 114.54581 7.3664255
41.844635 114.64143 7.3315525
42.754654 114.96284 7.3743057
43.504086 114.76149 7.2811303
44.211536 114.50063 7.1806188
7.6926308 115.27419 7.095942
36.780209 115.05166 7.3227844
38.063919 115.3854 7.2560372
41.974026 115.01192 7.4327917
42.276814 115.1178 7.4460087
42.760986 115.02126 7.3913488
46.655712 115.08386 7.3087749
47.435928 115.33008 7.3786454
6.8819046 115.9851 7.2256589
34.851341 115.75006 7.094152
35.115124 115.61892 7.0310316
35.931782 115.96279 7.0014009
36.967686 115.78323 7.4863501
37.176575 115.65467 7.4280229
48.194427 115.744 7.498982
6.9752312 116.07709 7.2227268
7.144022 116.21033 7.2151513
34.780396 116.10883 7.1808968
35.245495 116.19523 7.1385679
6.8015499 116.69406 7.2826729
31.464252 116.88735 7.0812674
31.699102 116.80226 7.0341029
50.396835 116.85675 7.0694375
29.796225 117.43323 7.4116421
30.214851 117.35718 7.3383451
30.70789 117.13049 7.2292123
31.812283 117.38008 7.1195445
50.492771 117.17432 7.1443958
50.768429 117.20691 7.1547256
51.132416 117.37749 7.198524
51.996876 117.48017 7.2352357
52.179142 117.26078 7.1888337
52.553238 117.34313 7.2151656
29.448183 117.59573 7.4899139
29.575588 117.5244 7.4592109
30.772402 117.72327 7.3224387
31.033844 117.63667 7.2709913
51.410698 117.55116 7.2422795
51.80127 117.67422 7.2764182
27.30756 118.37325 7.0872297
27.655602 118.28266 7.0288811
29.913021 118.01601 7.4943881
25.276096 118.99876 7.444736
25.901232 118.79581 7.3326621
26.320019 118.64441 7.2558327
26.774351 118.58167 7.18641
25.08634 119.03201 7.475111
20.866638 120.48534 7.2115917
21.176216 120.444 7.170598
21.671167 120.32732 7.1000791
22.118641 120.18138 7.0323572
-6.6008377 120.62883 7.0702114
20.342913 120.76524 7.3022032
20.645992 120.58019 7.247436
21.117464 120.51626 7.1848645
97.865898 122.49599 7.0137353
97.704643 122.78032 7.0398932
97.558212 123.18219 7.0795527
-4.7441635 123.60509 7.100636
-8.2862911 124.80643 7.4058437
-7.9907417 124.97379 7.3944001
96.622276 124.8938 7.2439899
-7.9679337 125.18025 7.4036412
-4.2086601 125.36748 7.1554818
96.433121 125.26378 7.2808819
96.09684 125.7084 7.3228049
95.303665 126.38647 7.3806419
95.822601 126.17127 7.3690076
93.751411 126.91195 7.4035659
94.189507 126.78427 7.3992553
94.744186 126.59331 7.3906322
92.333633 127.42631 7.4312019
92.831711 127.24377 7.4209762
93.210922 127.09923 7.4127359
93.51609 127.01302 7.4098401
90.720306 127.9317 7.4560671
91.250977 127.76142 7.4470382
91.78788 127.59448 7.4389172
88.311188 128.45059 7.4695706
89.249031 128.45572 7.489512
89.740082 128.27899 7.4777775
90.236237 128.11154 7.4676495
88.874298 128.56503 7.4954777
28.001875 79.365097 7.8398433
26.45628 90.484039 7.6951542
26.729313 90.397873 7.6142001
24.947142 90.990372 7.507586
25.471777 90.809288 7.9928956
25.698158 90.735596 7.9235711
26.180321 90.581612 7.7772222
23.424904 91.497261 7.9460278
23.786963 91.420143 7.8390622
24.304947 91.21199 7.6903501
24.725605 91.078705 7.5698442
22.199854 91.902168 7.5913782
23.32699 91.524712 7.9749036
109.99369 97.833633 7.8488798
19.222544 98.353722 7.8271742
19.306328 100.66897 7.967721
21.25173 101.45657 7.5566797
26.679525 101.27763 7.7859359
21.370659 101.57462 7.5379505
22.414267 101.76517 7.9725966
22.548409 101.80274 7.9386964
26.674553 101.70597 7.8401585
21.7153 102.27937 7.5180907
23.990879 102.20528 7.5767403
24.058449 102.19053 7.556366
25.817474 102.45434 7.661881
26.357859 102.05932 7.9973135
25.816582 102.75621 7.7006683
107.85561 102.54432 7.9975877
23.736185 103.43352 7.7855897
25.477604 103.24908 7.8712387
25.628506 103.30137 7.8315911
23.79553 103.70492 7.8021078
24.484127 103.5761 7.5972686
24.557041 103.61398 7.5819497
25.434536 103.60728 7.9337249
26.183929 103.68588 7.7137446
23.9128 104.04266 7.8116655
19.408035 105.17993 7.5722246
19.610085 105.35489 7.5487089
22.98452 105.18887 7.5251484
23.018084 105.07202 7.5032744
25.937822 105.0097 7.9903884
15.183813 105.90845 7.5624504
19.631527 105.58624 7.5677824
23.150658 105.54243 7.5291033
15.375793 106.09399 7.5460715
24.488964 106.34555 7.9755416
24.626358 106.4152 7.9499702
22.242258 106.84585 7.9051919
24.5776 106.57892 7.9876742
14.222475 107.26591 7.844079
14.83814 107.48267 7.7600765
22.175377 107.14404 7.9595251
22.833748 107.36388 7.8375635
14.009972 107.6639 7.9155421
14.821758 107.58858 7.7724476
15.269825 107.77161 7.7141161
22.65283 107.57231 7.9070864
23.010658 107.88924 7.8691506
24.359825 107.70907 7.5393906
13.90271 108.01763 7.9656763
14.847757 108.07857 7.813036
15.011297 108.21975 7.7987971
15.661987 108.31865 7.6995206
16.23995 108.43254 7.6140895
30.476822 108.22076 7.8742032
31.353193 108.31822 7.657033
-2.0182953 108.96195 7.6483269
-1.9522705 108.78198 7.6299505
-1.4720116 108.52007 7.5644202
15.858433 108.93792 7.7257075
16.205662 108.5948 7.6352444
31.339037 108.74314 7.7747865
-2.1540756 109.45929 7.6944504
-1.9211254 109.17643 7.6524868
10.594613 109.33608 7.5154495
15.907455 109.06614 7.7299209
30.405251 109.25276 7.5993147
31.381294 109.10324 7.8614044
31.676081 109.24992 7.8250008
-1.9999161 109.57721 7.6865907
10.942337 109.9155 7.5151501
16.119122 109.67982 7.7547545
29.565559 109.57083 7.8821998
16.458155 110.33836 7.764626
28.92304 110.25781 7.5843592
29.256386 110.31971 7.5230541
30.137461 110.40144 7.9392228
32.834621 110.4057 7.8718433
33.271172 110.32721 7.7482424
33.573433 110.18541 7.6375141
30.310944 110.56522 7.9377732
30.758245 110.80747 7.8934426
31.059357 110.95445 7.8610015
31.665134 110.69962 7.6603751
32.733597 110.55468 7.9393334
34.003223 110.63843 7.6813312
11.665579 111.14637 7.5190558
11.93189 111.50523 7.5135002
12.017109 111.5859 7.5089459
2.2438774 113.30186 7.5063396
-0.77540207 113.81484 7.843751
41.2649 113.75919 7.6906652
41.592129 113.82056 7.6892347
45.752678 113.97154 7.6188822
41.749931 114.27071 7.8295803
44.240112 114.47158 7.7933755
45.47702 114.47932 7.7808619
45.709091 114.15377 7.677073
46.11438 114.10965 7.6648674
39.497967 114.87672 7.5896611
39.583431 114.84586 7.5722504
40.795879 114.54505 7.9882236
41.022087 114.53062 7.966001
41.873535 114.61815 7.9379239
43.420563 114.72848 7.9007878
43.723057 114.62172 7.855979
44.044731 114.5035 7.8082299
45.345448 114.73785 7.8645153
46.584942 114.88652 7.91465
2.2081528 115.16496 7.635839
37.940628 115.35888 7.9006329
38.240833 115.3548 7.8646107
38.652264 115.22828 7.7811198
45.157669 115.11328 7.9869642
46.704651 115.01785 7.9573555
-22.481075 115.80952 7.8752837
36.378437 115.90491 7.5914974
43.761921 115.93865 7.6139488
44.233604 115.78482 7.5518284
1.098568 116.1394 7.8130527
1.7611389 116.00397 7.7376113
34.856133 116.44235 7.9344454
35.228107 116.46321 7.8872614
35.600639 116.17786 7.7638578
43.348137 116.08335 7.6739373
43.528748 116.02405 7.6484928
48.960552 116.08104 7.6017923
49.696655 116.45007 7.7158499
34.920311 116.60703 7.9667034
35.000256 116.67136 7.9715862
50.237514 116.69291 7.7938242
50.860432 117.19041 7.9428239
51.117889 117.33187 7.9877367
52.280632 117.17964 7.9887261
28.125999 117.99148 7.7527552
28.838461 117.80025 7.6142459
29.212708 117.69901 7.5419135
27.250612 118.38247 7.950726
27.830072 118.15221 7.8242626
28.264757 118.142 7.7571363
28.903507 118.24324 7.6794739
29.81119 118.04333 7.5136542
51.317162 118.86909 7.5474272
53.878094 118.56241 7.5196924
54.735729 118.9565 7.6298189
23.855389 119.44632 7.6995525
24.223314 119.35183 7.6361446
24.783537 119.13927 7.5308561
51.209126 119.09682 7.6000047
54.988865 119.08135 7.6645288
55.274315 119.24493 7.7088594
22.390413 119.98602 7.9749007
22.893604 119.75469 7.8741293
23.177101 119.69684 7.8268623
24.871994 119.71149 7.5945168
25.149672 119.6214 7.5447264
50.903103 119.72898 7.7477493
22.802004 120.40413 7.971427
23.794025 120.06563 7.7893286
50.661629 120.25664 7.8732376
54.848759 120.19464 7.9085746
56.965279 120.0338 7.9350286
4.4120445 120.74451 7.8018994
4.5337448 120.84216 7.7967224
50.394379 120.76983 7.9966836
-14.400238 122.3541 7.6914959
-14.168398 122.70573 7.6946712
-13.94088 122.60513 7.673862
-13.916611 123.04784 7.6959448
64.916321 123.88927 7.8081551
65.15522 123.60728 7.765234
-15.752762 124.11298 7.8774819
-16.205215 124.79657 7.9447112
66.677338 124.66396 7.9911771
87.789108 128.93301 7.5203862
88.287521 128.78278 7.511116
78.070686 129.89809 7.5000176
77.885826 130.17677 7.5372028
78.877388 130.33566 7.5697503
82.475128 130.43861 7.6286864
82.78315 130.31247 7.6160173
83.207092 130.1716 7.6032691
83.647263 130.03804 7.5920558
79.665367 130.73871 7.6345425
80.116425 130.88599 7.6600804
81.227379 130.84949 7.668283
81.725876 130.6561 7.6481309
82.149994 130.53198 7.636878
80.928024 131.07455 7.6956348
24.942282 90.972595 8.1576366
25.212883 90.885788 8.0734015
23.965799 91.34079 8.4645166
24.292532 91.18541 8.3624716
24.67836 91.063766 8.2401791
22.808083 91.694649 8.1282549
23.145338 91.587578 8.0283337
20.6513 98.473053 8.2083225
17.595074 100.22813 8.3537979
18.771013 100.34887 8.0743418
18.763906 100.70517 8.103631
19.146149 100.8322 8.0198593
21.994524 101.77585 8.0913105
22.211088 101.61108 8.0146627
25.942774 102.37803 8.1859388
26.372047 102.23011 8.0151854
23.856516 102.75919 8.3152409
26.369301 102.72342 8.0846796
26.389111 103.21285 8.1498699
107.81639 103.35224 8.0525284
24.724356 103.94075 8.1999035
26.086346 103.88357 8.3589649
107.01913 103.87821 8.032465
107.70601 103.69671 8.0695229
24.715176 104.43907 8.2744007
25.427231 104.44212 8.0570278
106.85822 104.21378 8.0456066
24.888174 104.72588 8.2644491
107.16341 104.70583 8.10499
24.832003 105.11878 8.3416777
25.068514 105.27182 8.2942905
106.86545 105.37715 8.1346283
107.00049 105.04082 8.118578
15.819985 105.93764 8.3773813
16.52631 105.86256 8.2261124
21.041035 105.58085 8.0299435
25.085173 105.58751 8.3399105
106.34395 105.79897 8.1294613
21.609034 106.82021 8.0487003
22.948896 106.95413 8.4723988
23.997274 106.94828 8.196146
24.34943 106.8716 8.0923214
24.638603 106.89498 8.0205812
2.9035378 107.03497 8.3782959
22.997879 107.00581 8.4672136
24.75083 107.22606 8.0437756
105.30296 107.37815 8.180994
105.51579 107.17665 8.1798306
3.3415527 107.87834 8.380867
4.0880089 107.82578 8.2759361
22.156269 107.94557 8.0711317
24.946678 107.9516 8.1115742
3.3206444 108.15894 8.4045258
22.137154 108.07522 8.0932016
5.2547035 108.63956 8.1793041
30.298937 108.90247 8.1004038
12.138496 109.20283 8.3700371
12.588709 109.25531 8.2997303
30.326736 109.02152 8.1238747
28.855425 109.98452 8.1564198
-4.7087479 110.44759 8.0168324
12.05422 110.03381 8.4619904
28.902863 110.14673 8.1820278
29.11327 110.32414 8.1707439
30.491783 110.13342 8.3772373
30.777096 110.35069 8.3626251
-4.523941 110.73405 8.0169344
12.494192 110.87878 8.4701805
