# .PCD v0.7 - Point Cloud Data file format
VERSION 0.7
FIELDS x y z
SIZE 4 4 4
TYPE F F F
COUNT 1 1 1
WIDTH 1607
HEIGHT 1
VIEWPOINT 0 0 0 1 0 0 0
POINTS 1607
DATA ascii
23.849977 107.89417 4.9729314
36.617897 107.94733 4.8415184
-5.1228199 108.0704 4.7107019
-0.96444321 108.0834 4.5770159
23.41787 108.06174 4.703722
23.733973 108.12598 4.7159095
36.408195 108.14832 4.8613167
-5.5624504 109.05319 4.7756639
-5.4846306 109.16222 4.7786846
-3.6737022 109.05056 4.7141442
-3.102438 109.05269 4.6956434
-1.3285789 109.02234 4.636219
50.329758 109.39375 4.7055168
-4.8719139 109.59353 4.7804623
50.583138 109.97446 4.7714281
37.912636 110.28366 4.7113857
49.949799 110.45584 4.8008299
50.16127 110.20509 4.7815499
50.532589 110.04141 4.7765675
15.288491 110.65575 4.6800556
49.965828 110.62703 4.8191962
48.535416 111.11736 4.8297482
49.671036 111.18318 4.869607
50.116909 111.10887 4.8747234
13.856046 111.90029 4.8433385
37.434944 111.53638 4.6793432
37.763981 111.77885 4.7159991
13.950635 112.05634 4.8448005
14.005412 112.16738 4.8466911
42.446541 113.41852 4.9842958
42.728977 113.29204 4.9704733
30.769424 114.46008 4.6261063
31.35726 114.37067 4.8930502
35.032982 114.059 4.6503825
1.6555113 114.65939 4.7851768
30.481747 114.97073 4.5991611
30.698975 114.68465 4.766592
31.140755 114.77409 4.7463241
1.2662201 115.05708 4.8148298
1.8485693 115.25643 4.8013496
2.345623 115.3641 4.7872319
30.711243 115.31676 4.6206532
38.359253 115.46625 4.71737
38.746353 115.33149 4.6876345
39.176003 115.19335 4.6569881
2.3113487 115.75172 4.8030477
2.52882 115.83803 4.7981915
38.160049 115.52413 4.7314906
52.700092 115.78535 4.5152531
2.7223935 116.28679 4.8073792
34.299942 116.14613 4.9788523
34.74424 116.14552 4.9562964
35.055779 116.33008 4.9671707
35.699467 116.45133 4.9540644
36.675743 116.20456 4.8778324
52.453217 116.28934 4.5696907
52.567547 116.08439 4.5473175
2.93749 116.8047 4.8177991
33.930534 116.77086 4.5540848
34.024773 116.57319 4.5260119
35.366505 116.56219 4.9850855
35.549145 116.51431 4.9697771
36.258591 116.58455 4.9477887
50.32798 116.7574 4.6403713
50.722992 116.91315 4.6530323
52.147503 116.88301 4.6352782
2.6212788 117.30517 4.847477
3.1025608 117.26942 4.8277612
32.495018 117.47147 4.731287
32.682281 117.4583 4.7164574
33.15876 117.28585 4.6637034
33.754177 117.13995 4.6067424
51.47831 117.29844 4.6868114
51.921177 117.35801 4.6886048
52.038708 117.09493 4.6590405
2.9853249 117.63492 4.8448663
3.3305645 117.61549 4.8308253
20.282751 117.95036 4.6708126
20.618555 117.79596 4.6383739
21.220959 117.8392 4.5945001
21.549648 117.75495 4.5655828
31.064554 117.96389 4.893013
31.792788 117.77026 4.8161454
94.119675 117.8009 4.6348963
3.6141386 118.27951 4.8418875
19.960175 118.08421 4.7012625
20.144863 118.07204 4.6867642
20.731638 118.1764 4.6469946
27.458778 118.4509 4.6851492
27.7376 118.4194 4.6588268
30.361637 118.24344 4.9795485
30.690233 118.22487 4.9515967
2.5155277 118.96707 4.9079232
3.4727421 118.98359 4.8704319
3.8282671 118.75366 4.8488083
21.474943 118.86517 4.6210899
26.898911 118.74265 4.7561588
27.219711 118.63098 4.7197838
27.975372 118.64783 4.6564331
28.202269 118.77312 4.6469646
29.33931 118.67789 4.5436559
3.9524794 119.10645 4.8550835
4.0710998 119.33792 4.8575501
21.306477 119.2972 4.6533751
21.705647 119.27716 4.6217012
26.936737 119.4493 4.8082037
28.413301 119.00893 4.6475449
4.2391062 119.72921 4.8627806
20.882748 119.54106 4.6968651
21.040812 119.509 4.6832933
25.457653 119.95039 4.9759226
25.760319 119.80657 4.9382315
26.247877 119.6435 4.8830156
26.624855 119.55972 4.8437805
4.4257097 120.16679 4.8683443
4.5396919 120.40939 4.8708353
23.722956 120.42948 4.5146713
25.394503 120.00079 4.9853907
26.463148 120.34566 4.9192562
26.59351 120.30865 4.9050846
4.6606784 120.70967 4.8745627
21.285423 120.96743 4.7295318
22.287979 120.92111 4.6493926
22.769798 120.75912 4.6044455
23.265366 120.60737 4.5587077
4.8841472 121.20011 4.8792272
21.428572 121.16752 4.727325
21.782251 121.11609 4.6975217
5.0903883 121.70728 4.8845978
4.0199547 122.14943 4.942997
5.2889271 122.22874 4.8902292
5.4610262 122.64385 4.8937607
5.5942402 122.88316 4.8941431
33.37616 122.91344 4.5442762
33.613564 122.82501 4.5183272
5.0010529 123.03901 4.9245639
5.733479 123.18381 4.8956928
5.8059421 123.69921 4.9055257
7.6424947 126.26443 4.8785934
7.7232914 126.67389 4.883347
7.254797 128.27049 4.9399166
7.7403841 128.31548 4.9162731
8.1627989 128.43701 4.8971281
8.4083481 128.59683 4.8876066
8.5770073 128.84026 4.8835349
8.7690229 129.2859 4.8818955
7.6785507 130.60925 4.9639101
7.8462992 131.08817 4.9639506
8.2130165 131.20554 4.9465756
8.7270718 131.32437 4.9210939
8.951457 131.74666 4.9162927
9.0857649 132.10394 4.915071
39.822041 83.781235 5.4681792
42.17902 86.398872 5.2738266
41.639553 87.479317 5.158545
41.319885 87.646141 5.1314478
41.91098 87.985237 5.1273069
42.078842 87.905815 5.1413426
42.926071 88.311363 5.1499085
41.967865 88.523178 5.0861502
43.220779 88.786552 5.1301889
35.974304 89.425934 5.3557186
41.974617 89.133026 5.0386219
42.256596 89.213509 5.0470138
42.745083 89.102463 5.0812435
34.880486 89.576584 5.3144836
35.916615 89.534348 5.3391204
42.116184 89.575821 5.0125613
43.359955 89.804222 5.067522
40.859463 90.647942 5.4673986
41.077663 90.702614 5.4791884
23.156225 91.638954 5.0955381
40.078423 91.568665 5.3150067
21.54599 92.220596 5.3227606
33.941463 92.087135 5.3564038
20.404829 92.620117 5.0386
20.573772 92.5755 5.0123529
32.282719 92.597618 5.2356458
32.501804 92.731529 5.2112875
35.06863 92.538605 5.3274555
46.047707 92.88311 5.1085434
46.72575 92.663574 5.1727839
47.134499 92.718224 5.2058406
31.904587 93.265709 5.1089368
32.301937 93.210602 5.1203604
32.56649 93.056931 5.1511984
33.090775 93.420235 5.0947895
33.534794 93.390053 5.1138601
45.019402 93.127258 5.0146685
46.460388 93.31395 5.1302934
46.810478 93.366539 5.1592636
56.102707 93.344727 5.0174937
16.541759 93.890656 5.1565237
17.325886 93.647255 5.032515
31.866861 93.776779 5.0118542
32.29583 93.706619 5.0278368
32.774921 93.724464 5.0325232
33.387463 93.674706 5.0591063
33.799931 93.871696 5.041966
34.193913 93.790665 5.0752211
34.789574 93.963852 5.0823822
38.110657 93.947861 5.3807716
46.315483 93.714767 5.1068473
46.54372 93.580284 5.1302567
47.123814 93.758408 5.177341
56.176441 93.856308 5.0283279
29.291384 94.196983 5.0151801
33.82225 94.089371 5.0068684
34.268543 94.187485 5.0146785
34.788773 94.221184 5.0427952
35.603859 94.336441 5.0872116
37.759518 94.129692 5.3211169
38.117615 94.218422 5.3500514
39.242004 94.499657 5.4522843
40.829754 94.221245 5.1587586
57.189205 94.284569 5.1021442
57.72702 94.397652 5.1403303
58.607803 94.147797 5.1952119
15.204504 94.74028 5.3808565
15.862246 94.601471 5.273056
34.935085 94.515312 5.0081496
35.044331 94.601562 5.0036736
35.731647 94.765785 5.0383964
36.003124 94.895226 5.0459237
37.320827 94.919716 5.1798992
37.698433 94.871483 5.228425
38.015068 94.982712 5.2529116
38.781254 94.578766 5.3876362
39.069332 94.576797 5.4231114
44.113892 94.759117 5.4958215
48.852642 94.692383 5.3222823
49.693417 94.733185 5.4024553
57.909637 94.611694 5.1566801
58.098663 94.93425 5.1760969
58.760349 94.926895 5.2212267
36.050121 95.18277 5.0132117
37.158062 95.126678 5.1377883
37.771584 95.053513 5.2165132
38.080559 95.087837 5.2496233
38.968369 95.117493 5.3572655
39.054371 95.396652 5.3425312
39.948292 95.00621 5.0138078
43.62278 95.458946 5.4086332
49.628487 95.36338 5.3934679
58.204895 95.342979 5.1925182
37.277081 95.879242 5.0697684
43.643707 95.60537 5.4058189
58.199898 95.776077 5.2028508
37.413822 96.144447 5.0603232
39.266571 96.341324 5.2938671
39.888306 96.451569 5.3759861
44.04261 96.478043 5.4297957
48.334755 96.406708 5.2661524
50.224594 96.412384 5.4559517
58.170216 96.148254 5.2105117
58.601791 96.325592 5.2456627
59.688164 96.319016 5.3217697
17.667614 96.77446 5.0201311
21.660154 96.953888 5.0393438
25.056061 96.998131 5.1138678
37.772289 96.893448 5.0415764
38.447861 96.717583 5.1496525
38.867756 96.686272 5.2117987
39.022778 96.652206 5.2364883
44.17038 96.637749 5.4426913
48.257565 96.685349 5.2596598
49.128418 96.649231 5.3470135
50.127991 96.557556 5.4473944
58.386963 96.903061 5.2478881
59.192207 96.747314 5.2999077
17.749146 97.321793 5.0188851
21.711761 97.035202 5.0254717
25.101622 97.227615 5.0666285
48.662262 97.155823 5.3042493
16.525547 97.947426 5.2386556
17.752769 97.515297 5.0228481
21.164261 97.816292 5.4509492
22.411068 97.899185 5.2527127
22.563833 97.886513 5.3895187
49.846413 97.642853 5.432703
50.074257 97.777969 5.4587564
54.944717 97.940598 5.0377073
57.448181 97.746033 5.2092438
16.787071 98.047821 5.1979413
17.282375 98.004761 5.1139297
19.964672 98.381767 5.3843098
20.901691 98.296799 5.3350077
21.312805 98.301636 5.3949471
21.677263 98.292595 5.2153068
22.317787 98.127792 5.1997943
22.558655 98.099899 5.375083
49.70771 98.311752 5.4316645
50.051323 98.009903 5.4609699
56.773201 98.210831 5.1776218
57.112823 98.057106 5.1963053
57.5326 98.337837 5.2368455
17.700384 98.798737 5.4893804
20.200233 98.659546 5.3285151
20.973906 98.713081 5.4182324
21.192387 98.816513 5.2457132
21.651836 98.769814 5.1422973
49.679581 98.544159 5.4341917
57.526695 98.59478 5.2463531
58.704388 98.640953 5.333076
19.344212 99.403244 5.1696291
19.754967 99.287064 5.1303797
20.044163 99.122353 5.0230541
20.939417 99.381714 5.4683819
21.269632 99.305771 5.2102036
21.527599 99.354553 5.3114147
58.113701 99.42849 5.3237228
19.410967 99.920189 5.1690841
19.674934 99.710579 5.4144201
20.051128 99.864159 5.0369201
20.932032 99.768555 5.2370853
21.203358 99.672287 5.2250991
40.93153 99.632408 5.4355011
41.017311 99.522484 5.4503956
41.704807 99.69265 5.0951743
57.844975 99.660522 5.3146296
58.034264 99.845467 5.3368797
58.668137 99.993683 5.3900323
19.42399 100.4217 5.1819263
19.742987 100.28164 5.1977849
20.078257 100.36176 5.1536832
41.2033 100.07739 5.4848547
46.513107 100.19283 5.1475925
56.767548 100.06278 5.2547927
57.903645 100.46062 5.3569531
58.716736 100.19275 5.4031754
14.452926 100.92474 5.1991858
14.525432 100.88271 5.1869493
19.861429 100.72515 5.2541323
20.02985 100.50895 5.3882589
40.895542 100.85146 5.4442029
41.05748 100.72765 5.3203845
45.768066 100.64529 5.0847335
54.27459 100.82178 5.1097546
58.514587 100.62703 5.409996
16.038288 101.29044 5.0022759
17.712757 101.45921 5.1792498
18.003677 101.43237 5.1276274
18.668791 101.35647 5.1303902
19.271069 101.26787 5.2471342
19.562967 101.10802 5.1793461
40.932514 101.06832 5.4566374
52.903664 101.20885 5.0293007
54.257942 101.34409 5.1356659
17.181778 101.73087 5.2855902
17.720211 101.51886 5.1811085
18.77084 101.7132 5.2988605
19.32497 101.73927 5.2585521
19.563284 101.58422 5.2009087
47.110413 101.83542 5.285665
52.177715 101.79478 5.0077591
56.982876 101.89605 5.3663254
57.072437 101.98665 5.3781319
18.779224 102.28878 5.2068591
19.134623 102.06268 5.3153324
46.833267 102.14203 5.27248
47.085102 102.18858 5.302577
51.892761 102.26406 5.0137687
52.118095 102.42319 5.0398035
-0.17056084 102.66399 5.2634335
16.416489 102.99614 5.4936895
16.754795 102.78699 5.4218273
17.229706 102.66187 5.3317933
18.475414 102.53412 5.1082544
18.797722 102.55415 5.4145703
41.746639 102.81207 5.2219176
51.498756 102.89136 5.0232034
51.675129 102.65666 5.0215197
16.444035 103.04089 5.4918113
41.829594 103.20554 5.2613125
42.038269 103.213 5.2918415
55.551582 103.03307 5.3300834
10.220076 103.76894 5.2920408
42.280647 103.80437 5.372963
44.188396 103.77449 5.0934625
9.7403259 104.30016 5.3739047
10.175527 104.09888 5.3170657
41.896679 104.20145 5.3525276
42.239079 104.26903 5.4076095
44.196915 104.01585 5.1131959
44.766613 104.39897 5.2059193
9.3694305 104.75826 5.4403419
9.5227041 104.76078 5.4249005
45.940559 104.8898 5.3740215
4.9001036 105.32088 5.0842915
5.1535931 105.04173 5.0509672
9.4543791 105.07664 5.4517336
9.5920334 105.15984 5.4429884
45.880852 105.2127 5.3965626
48.9809 105.34792 5.0181909
4.9988689 105.52428 5.0896358
5.4288511 105.67447 5.0697222
0.96448517 106.117 5.3935919
6.9363956 106.29573 5.0051217
36.384621 106.27253 5.1668911
37.438213 106.66314 5.2842312
37.519669 106.65156 5.4100003
36.494621 107.49239 5.0855155
36.634888 107.3902 5.2516575
23.072809 107.97794 5.409379
23.890985 107.71284 5.3193893
36.359642 107.73861 5.3195701
36.528175 107.73685 5.2111597
23.255548 108.10799 5.222867
23.921829 108.32919 5.1425357
24.010489 108.47917 5.3160729
35.802937 108.31374 5.3767052
36.222076 108.18098 5.2529531
-17.36552 108.81039 5.1430054
35.770702 108.60184 5.2371531
36.012001 108.59572 5.2574329
35.935429 109.04681 5.3476844
-11.11018 110.3821 5.0233736
15.34652 110.61213 5.2246137
-11.831719 111.85294 5.120193
13.872557 111.88163 5.4597955
-15.040508 112.18654 5.2418947
-12.580139 112.47141 5.1749792
-11.73061 112.26848 5.1371098
13.957747 112.04379 5.4627328
14.003529 112.12434 5.4638619
-11.713751 112.71376 5.1580172
-11.481476 112.65531 5.1475377
-11.905426 113.06282 5.181057
42.245651 113.56084 5.0017715
53.388184 114.33263 5.3233776
53.538578 114.14242 5.3057103
38.844803 114.95127 5.2002487
39.241646 114.82349 5.1778994
39.737087 114.66397 5.1515827
40.12262 114.54294 5.1326857
53.177414 114.75397 5.3665047
12.628178 115.0007 5.0862017
37.370491 115.47141 5.3014212
37.76815 115.4334 5.2890339
38.25853 115.23091 5.2501106
38.601635 115.04315 5.2166667
52.911156 115.30135 5.4241657
53.035374 115.04781 5.3972201
34.70768 115.99013 5.4581337
35.900795 115.95982 5.4155107
36.25436 115.83501 5.3851895
36.763077 115.65926 5.3440552
37.128975 115.54251 5.3173766
52.677689 115.76656 5.4743667
33.972385 116.28204 5.0155077
34.28891 116.1277 5.3488498
34.687851 116.09698 5.4775701
35.253838 116.18718 5.4739709
35.653538 116.05234 5.4383559
-3.7122211 116.70737 5.0592937
33.876312 116.7604 5.0895414
34.043945 116.61554 5.0595436
32.5681 117.4243 5.2634439
33.032829 117.41402 5.2331562
33.715256 117.09776 5.1472273
31.435169 117.88727 5.4071183
31.711782 117.79268 5.3740144
20.98415 118.451 5.2618151
21.293316 118.36485 5.2267947
27.424543 118.45687 5.2511468
27.733871 118.38428 5.2155137
29.798563 118.43737 5.0467615
30.124771 118.37361 5.0131998
30.870434 118.13579 5.4844537
31.069378 118.00446 5.45047
21.440561 118.70596 5.2394633
21.5049 118.79341 5.2402911
27.187506 118.60547 5.2892346
27.974953 118.55376 5.2136073
28.246498 118.77782 5.2155404
28.748344 118.84794 5.1805906
29.253824 118.69303 5.120575
29.559521 118.62511 5.0875874
-11.510063 119.1897 5.4374199
-11.400181 119.30853 5.4383383
21.443586 119.15952 5.2740383
21.616627 119.0743 5.2516756
26.441195 119.49361 5.4577351
26.725813 119.39369 5.420413
26.252136 119.54659 5.4811659
32.388966 119.80787 5.0015478
23.583061 120.47412 5.1824579
24.264311 120.29134 5.1076708
24.707218 120.20101 5.0614634
25.154099 120.06808 5.0117431
32.532745 120.18494 5.0334072
21.194773 120.83567 5.4257388
22.172855 120.94621 5.3455977
22.800142 120.78656 5.2767735
23.252871 120.66865 5.2270627
23.771906 120.52091 5.1692681
39.178886 120.90774 5.4219613
39.658043 120.74196 5.3798165
21.448065 121.11974 5.4246058
21.76602 121.16517 5.3992996
22.209772 121.04819 5.3501625
38.393044 121.16909 5.4918442
38.71043 121.06841 5.4639988
17.764702 121.62051 5.0278001
21.802931 122.41177 5.4923429
34.804878 122.40839 5.1205306
35.148308 122.28767 5.0834799
33.395844 122.82267 5.2669058
33.658298 122.786 5.2437739
34.252541 122.63446 5.1843925
34.522461 122.58637 5.160008
2.9523296 126.7263 5.1110983
3.0417938 126.90039 5.1113052
3.1793175 127.28035 5.1142416
3.3628116 127.80125 5.1181922
3.4687862 128.13947 5.1211963
3.5243149 128.26181 5.1214304
4.3992386 130.87834 5.1367044
4.4672785 131.08951 5.1377058
40.331238 82.723274 5.5866089
40.71278 82.852295 5.578186
36.80032 91.531792 5.5950961
39.741344 93.111343 5.659771
46.041317 93.213928 5.792284
16.894342 93.771812 5.6291041
39.44175 93.590286 5.5719748
39.802231 93.588867 5.614789
44.540905 93.786362 5.5908604
45.048489 93.681313 5.6545963
55.430145 93.802361 5.9655647
39.904026 94.103577 5.5743995
40.219166 94.379745 5.5880704
44.477608 94.165207 5.5651627
44.554031 94.228569 5.5711737
45.656746 94.232567 5.702023
46.715794 94.384003 5.8254571
47.088737 94.364525 5.8721809
44.257439 94.807587 5.5111294
46.879959 94.643921 5.837534
47.734592 94.844688 5.9395623
51.471954 94.936188 5.5750599
20.534931 95.222778 5.7470064
19.890087 95.690399 5.8711538
43.471004 95.851646 5.9533124
48.024403 95.856247 5.9573417
43.534653 96.125732 5.9505591
54.190079 96.387016 5.8610315
46.97691 96.841522 5.808238
47.037155 96.922272 5.8157635
54.839615 96.833572 5.9363098
45.963375 97.421165 5.6691656
46.071175 97.450104 5.6835599
21.207481 97.884483 5.7698698
21.666548 97.842087 5.6867089
22.233326 97.794159 5.7948971
22.753574 97.948257 5.6208591
45.900051 97.866371 5.6599412
46.03056 97.721169 5.6776719
54.95023 97.98494 5.9754863
15.218792 98.100845 5.9769096
19.985014 98.379669 5.7388515
20.143105 98.416779 5.6963358
20.695129 98.333221 5.8108463
21.464792 98.133942 5.6817236
21.793482 98.254868 5.7776575
22.003387 98.032448 5.8448715
22.721092 98.008492 5.6247826
45.800598 98.252357 5.6475964
55.016579 98.066315 5.9848213
17.364714 98.837967 5.5583763
17.506489 98.907707 5.5311966
21.362677 98.808228 5.8511844
21.715145 98.645996 5.7266297
50.443512 98.581146 5.515615
17.341238 99.201195 5.572258
18.119816 99.444778 5.8250518
19.269962 99.386246 5.9210181
19.626751 99.17099 5.8243008
21.30727 99.258568 5.808217
21.577555 99.282135 5.7332921
50.205986 99.236855 5.5094724
19.334726 99.817741 5.8594871
41.327011 99.917725 5.5050688
41.865826 99.638573 5.5973039
42.046883 99.68959 5.6288772
46.687523 99.815292 5.7966733
16.755411 100.31961 5.7297406
19.309843 100.21592 5.8227739
19.51054 100.17627 5.5056558
41.409317 100.12532 5.5214243
41.556721 100.23931 5.5488153
45.652687 100.47474 5.669672
17.200243 100.53207 5.6459808
18.94088 100.62496 5.655592
19.163378 100.7127 5.8475614
45.62941 100.56583 5.6694784
46.648121 100.72182 5.8207092
53.928429 100.74496 5.9698944
54.044464 100.87185 5.9885559
18.818918 101.37141 5.7132702
19.232481 101.27902 5.8054805
19.52652 101.06272 5.5278311
21.306725 101.1599 5.9621048
45.705978 101.25877 5.707972
49.718887 101.27679 5.5397925
53.924324 101.13661 5.9886718
18.966434 101.61501 5.6880698
19.175764 101.77844 5.8229885
21.450764 101.59676 5.9200191
45.875107 101.71577 5.7540755
46.100632 101.61223 5.7811513
49.511292 101.53548 5.5304055
52.121841 101.72193 5.8237906
18.196764 102.4175 5.9203691
18.940779 102.20161 5.7246857
19.13752 102.10279 5.6708174
42.295612 102.40525 5.7615318
45.763512 102.44952 5.7785497
46.682377 102.07253 5.8892097
52.263962 102.36423 5.8760567
16.295725 102.93073 5.510396
17.077591 102.95564 5.8003345
18.305904 102.71612 5.7088552
41.906883 102.71256 5.7108297
42.017738 102.72252 5.7313504
45.762157 102.6022 5.7877922
46.192665 102.891 5.8685341
52.180817 102.72323 5.8891425
16.375013 103.10338 5.5078173
16.882103 103.08506 5.8498983
17.047886 103.20222 5.8231511
18.055527 103.07747 5.9980836
19.797405 103.399 5.9306903
41.943184 103.22948 5.7542562
42.18964 103.23927 5.7992845
49.110134 103.37249 5.5980678
50.581039 103.23824 5.7487068
51.760761 103.07737 5.8662281
10.158642 103.67606 5.9535656
10.743964 103.83275 5.8833752
42.310291 103.72672 5.8603864
42.520847 103.89185 5.9123688
49.18832 103.55225 5.6191635
49.764874 103.76081 5.6967368
50.000347 103.91752 5.7337546
10.371334 104.24538 5.9614191
10.671557 104.09409 5.9103217
43.435146 104.18301 5.5706196
43.973743 104.19036 5.6483002
5.6050787 104.86716 5.8301249
43.893608 104.78608 5.6912527
48.980946 104.69595 5.6842632
49.557392 104.65042 5.7426934
8.4119797 105.46188 5.5820675
8.8863468 105.32449 5.525147
47.639801 105.37981 5.599328
48.912838 105.22415 5.7217155
49.332787 105.05115 5.751811
7.6461334 105.79581 5.6810889
8.3516159 105.54331 5.5933619
48.705032 105.7113 5.7431111
6.0588474 106.27963 5.8731508
-1.5454426 107.83025 5.6608143
22.940895 107.92957 5.7252145
23.049004 107.96068 5.7062707
23.805965 107.58789 5.7290559
-1.5732813 108.10301 5.6784019
-1.4356791 108.35107 5.6834607
-0.94166183 108.47266 5.6573758
23.107748 108.04057 5.7085781
23.925415 108.43302 5.7908335
24.063227 108.46066 5.7772379
35.654358 108.45428 5.5284944
-1.5088234 108.80473 5.7143593
-1.3206253 108.83949 5.7037377
24.113079 108.52595 5.7329798
35.649582 108.72181 5.5925007
-1.3866634 109.16521 5.7267542
-4.3836899 109.99872 5.9750628
-4.4480858 110.12895 5.9867849
29.650959 110.19763 5.8080192
15.417662 110.53848 5.7643847
42.267155 113.42072 5.5974641
42.736828 113.25116 5.588994
43.207813 113.06842 5.5800567
41.671673 113.6172 5.6076398
42.040779 113.50011 5.6017418
1.8854465 114.3759 5.794342
39.757301 114.42736 5.6914077
0.12881596 114.729 5.9328384
1.8762183 114.71436 5.8131094
12.721438 114.92963 5.7894258
38.307014 114.9219 5.7574239
38.74342 114.77055 5.7349463
39.244091 114.60254 5.7124987
39.531265 114.50817 5.7009697
36.812057 115.42348 5.846581
37.252609 115.28018 5.8187008
37.745808 115.11108 5.7883148
38.068455 115.00922 5.771379
-22.456028 115.96448 5.6694164
34.685711 115.98632 5.9852862
35.309616 115.93109 5.9620104
35.755272 115.78103 5.9251833
36.25946 115.61775 5.8875642
36.56382 115.5192 5.8661413
-22.333103 116.13235 5.6732693
34.165058 116.15839 5.5830278
34.813095 116.07471 5.9238296
35.067341 116.01909 5.9842958
52.388149 116.35753 5.5400095
52.516251 116.1012 5.5113182
32.90625 116.96295 5.7094383
33.253868 116.85152 5.6720691
33.744808 116.6867 5.6196804
34.063984 116.57827 5.5865445
52.181255 116.78524 5.5888543
31.363405 117.46536 5.8905535
31.741053 117.35549 5.8466778
32.24115 117.19458 5.7876635
32.663807 117.05647 5.7391272
30.781796 117.67444 5.9680328
31.15033 117.52478 5.915432
27.416321 118.46026 5.8197856
27.756773 118.35831 5.7733803
28.474686 118.49096 5.7293329
28.744133 118.38094 5.6897569
29.193766 118.3632 5.6492858
29.851665 118.43712 5.6070108
30.259785 118.34544 5.5615587
30.631504 118.19484 5.51091
31.081749 118.46274 5.5175877
26.93906 118.99347 5.9440126
27.170258 118.69495 5.8777342
28.218212 118.56456 5.762825
29.410816 118.52502 5.6555681
29.608051 118.56366 5.6453409
26.725174 119.07201 5.9761515
4.9968472 119.57964 5.8509636
5.0728512 119.64464 5.8489361
25.796677 119.73254 5.5445905
26.061226 119.62273 5.5074654
32.463543 119.86184 5.6285853
5.2792301 120.19466 5.8621812
5.5560932 120.30396 5.8482513
23.12151 120.48108 5.8886895
24.286747 120.26794 5.7493768
24.791529 120.19492 5.692215
25.205736 120.05865 5.6372032
5.409996 120.80648 5.8836532
5.7720628 120.69712 5.8527236
22.773174 120.59584 5.9366293
23.158791 120.54209 5.8917489
23.748941 120.53933 5.8326249
25.367344 120.70618 5.6948724
5.7509899 121.06454 5.8725233
23.916218 121.19856 5.8899064
24.329472 121.03542 5.8313084
-12.69453 121.74362 5.5812321
17.595587 121.59965 5.8159494
-14.050785 122.17963 5.6474104
5.8005624 122.23799 5.9271588
17.666986 122.34055 5.8656492
33.30307 122.41547 5.9492202
33.686928 122.37456 5.9183888
34.029137 122.40147 5.9006767
34.812775 122.39668 5.8522849
35.145832 122.27013 5.8143616
-20.554718 122.7121 5.9017529
5.8565464 122.74833 5.9483299
17.822189 122.63537 5.8736968
21.917223 122.77257 5.5099826
34.357498 122.50027 5.8948088
34.586891 122.54025 5.8866873
21.627329 123.38794 5.5837202
40.278992 90.465561 6.0393887
40.532829 90.32254 6.0827045
56.160461 92.620667 6.0394425
46.042641 93.419533 6.4804702
56.332939 93.398781 6.054563
44.459961 93.780426 6.2238255
44.697559 93.963127 6.2465844
45.219841 93.573807 6.3488684
46.141808 93.560143 6.4866514
56.705917 93.540733 6.0916405
44.776566 94.252968 6.2403746
45.154709 94.392006 6.2890658
46.42746 94.346397 6.4867077
56.98143 94.037964 6.1209173
13.648649 94.834854 6.2448578
44.347351 94.962669 6.1343727
44.726536 94.60659 6.2119541
57.797752 94.913147 6.2112722
19.212116 95.19278 6.2869077
44.459023 95.037247 6.1474586
44.52343 95.138428 6.1520882
48.461823 95.397903 6.0215702
48.6133 95.342293 6.0423012
57.884304 95.212151 6.2240753
19.213997 95.888275 6.4611683
20.710308 95.890472 6.0518098
48.460663 95.8508 6.0148172
48.558823 95.791504 6.0285802
49.998238 95.804108 6.2190542
20.707747 96.142365 6.0317369
48.66502 96.080772 6.039331
20.317814 96.624809 6.4950333
20.559444 96.925163 6.393024
44.351032 96.81881 6.055963
44.787315 96.780876 6.1284699
48.678425 96.637054 6.0374832
59.209141 96.793571 6.3931913
50.471062 97.336563 6.2832384
59.27795 97.106285 6.4087067
19.370865 97.758759 6.3110552
45.794571 97.727341 6.2786522
50.38131 97.671432 6.2740569
51.215351 97.795845 6.3914218
19.849514 98.241364 6.1499166
20.210684 98.269417 6.0414548
46.401192 98.097481 6.3796606
50.442383 98.391632 6.2932353
51.381031 98.407013 6.4251709
55.450272 98.177628 6.0341091
55.500393 98.162376 6.0389376
56.867592 98.331436 6.1896286
19.963663 98.912903 6.2777462
20.103462 98.83007 6.4165597
20.655418 98.534012 6.2459307
21.359657 98.623756 6.0082116
50.294678 98.802605 6.2808928
50.655151 98.891396 6.3337393
55.182095 98.773933 6.0246348
19.280733 99.367821 6.2957945
19.830635 99.192551 6.2304764
20.051243 99.12294 6.4232726
46.763561 99.325607 6.4503336
50.336304 99.307617 6.2994866
55.317101 99.219879 6.0549507
55.505314 99.284637 6.0775704
56.075142 99.027443 6.129065
58.226845 99.459572 6.3770256
18.929996 99.619278 6.0150447
19.258926 99.52816 6.3011398
19.774059 99.865433 6.2108788
20.115377 99.961906 6.3813009
46.67569 99.501144 6.4376945
50.075775 99.661552 6.2728219
55.400139 99.947487 6.092947
56.570732 99.73362 6.2100625
57.956261 99.894386 6.3663802
19.805031 100.38815 6.2922273
20.101852 100.21474 6.2560067
49.429649 100.21221 6.1992083
49.500263 100.27607 6.2116184
55.467941 100.21423 6.1118913
55.674004 100.01357 6.1253176
57.13728 100.2594 6.2943282
18.908108 100.86818 6.044064
19.331993 100.86166 6.2885079
19.780031 100.68601 6.1685343
45.541069 100.71432 6.267118
46.746834 100.97861 6.4923558
49.473129 100.56649 6.2188883
49.62545 100.62367 6.2430115
18.812759 101.05016 6.2694135
19.216316 101.22741 6.278336
21.095984 101.33933 6.0402794
46.76548 101.03897 6.4980969
56.339436 101.08521 6.2479897
15.874918 101.50812 6.4417381
18.980865 101.94118 6.4397669
19.172342 101.78793 6.2133346
46.06369 101.75142 6.4042826
51.089363 101.55428 6.496563
17.689957 102.24123 6.2387028
18.798223 102.26421 6.2544346
17.082432 102.52135 6.2009716
17.772701 102.91119 6.1243997
18.090458 102.94352 6.3798399
18.697321 102.65443 6.3132601
16.907948 103.3357 6.2988114
17.452068 103.1618 6.1524701
17.824348 103.18272 6.4726052
18.023582 103.01038 6.202311
19.389063 103.302 6.038497
44.709991 103.26444 6.2545004
50.372166 103.06839 6.4834166
9.4464912 103.64862 6.0495291
19.438368 103.69924 6.1293507
19.539246 103.82221 6.3958049
44.625565 103.66531 6.2706184
49.82785 103.88804 6.4641681
9.787775 104.43173 6.0537276
18.093382 104.39048 6.0934644
19.132868 104.27383 6.1964397
19.78491 104.24121 6.3599234
44.249249 104.46672 6.2742453
49.846046 104.10513 6.4837465
9.3455372 104.79813 6.1387653
9.642477 104.74151 6.0942931
17.832211 104.81477 6.1960764
18.140995 104.77711 6.1176009
19.184889 104.51071 6.2053061
49.489342 104.68932 6.4807549
8.1001949 105.47709 6.3552437
9.360507 105.12901 6.1590528
17.877966 105.2634 6.2288632
44.028557 105.45468 6.3382978
7.8408389 105.73843 6.4086776
8.0403461 105.55968 6.3690901
17.953766 105.86967 6.2741747
43.991703 105.63719 6.3527532
44.025867 105.58965 6.3532324
14.733533 106.4903 6.0462966
14.077335 106.89697 6.1925621
14.816985 106.54951 6.0371742
15.170673 106.61367 6.4980879
46.199188 106.69186 6.2169647
46.562599 106.64909 6.2623234
13.912562 107.31836 6.2572513
14.035959 107.04961 6.2127991
23.464336 107.34521 6.0430021
23.58391 107.39014 6.0193467
13.798103 107.6747 6.3082819
22.871931 107.84101 6.140378
23.18668 107.83913 6.0608511
23.567404 107.65189 6.0898261
4.3084826 108.33157 6.1827278
4.5791931 108.44789 6.1628404
23.014458 108.02079 6.0300069
23.901237 108.32022 6.1733332
24.203365 108.47848 6.1377945
4.214592 108.71847 6.2173858
4.5384274 108.54775 6.1734643
24.302063 108.54777 6.1319485
-4.6194496 110.29053 6.007453
11.818348 110.10556 6.2009048
15.40411 110.44815 6.3150253
-5.3335748 110.7904 6.0836849
-4.9134026 110.60654 6.0450902
11.897155 110.57396 6.2293673
15.41018 110.60434 6.3306665
-5.3993645 111.10146 6.1056957
43.672775 112.97458 6.2360559
42.313889 113.4473 6.2260451
42.760418 113.30158 6.2293715
43.610218 113.00735 6.2371764
44.415314 113.33459 6.3534923
41.775978 113.5412 6.2090011
42.073498 113.52039 6.2239337
8.1512794 114.41346 6.2051144
38.926254 114.47495 6.2474003
39.231339 114.36944 6.2379556
39.502068 114.30275 6.2359037
37.434216 114.97507 6.3073688
37.744297 114.8721 6.2928653
38.246773 114.70016 6.2707839
38.677341 114.5531 6.2543716
53.268166 114.79607 6.3415842
35.922241 115.47808 6.3975806
36.245567 115.37476 6.3767152
36.744587 115.20573 6.3449945
37.176418 115.06184 6.3208094
52.973873 115.38369 6.4040394
53.101051 115.13142 6.3769789
34.826359 115.84956 6.485117
35.262856 115.7076 6.4496384
35.676838 115.56539 6.4166608
52.804031 115.72468 6.4415793
33.797432 116.43558 6.1038246
34.216507 116.15157 6.0315247
52.628376 116.10632 6.4852257
-3.7758408 116.65097 6.3018608
32.316284 116.93898 6.2715497
32.754044 116.78858 6.2189312
33.265423 116.61556 6.1608667
33.554855 116.5179 6.1293678
30.349537 117.37833 6.4842362
30.751141 117.2445 6.4276199
31.249088 117.09892 6.3643289
31.738623 117.06744 6.3293943
32.069046 117.01267 6.299839
0.1966095 117.75713 6.0892453
29.9006 117.98177 6.0892644
30.239872 117.8686 6.0427957
30.528454 117.77361 6.0041494
0.31669235 118.07819 6.0978293
0.53900337 118.34376 6.0964222
27.383266 118.44926 6.3947382
27.753334 118.32114 6.3357887
28.300951 118.46217 6.3117051
28.741371 118.37066 6.25594
29.23353 118.20483 6.183733
29.635361 118.07703 6.1275954
-0.129879 118.5843 6.1550026
0.23673947 118.77322 6.1396184
26.957699 118.76101 6.494173
27.142548 118.63346 6.4522963
28.214312 118.54664 6.3350377
25.427834 119.49281 6.1673117
25.75602 119.38004 6.1173406
26.260479 119.2263 6.0442982
26.538338 119.13084 6.0029235
23.948418 119.9948 6.3973813
24.245741 119.85867 6.3453245
24.758289 119.71565 6.2697554
25.199772 119.56705 6.2017503
23.395996 120.18504 6.4858589
23.692871 120.08459 6.4384608
20.418804 120.79928 6.2040811
20.733767 120.69784 6.1595254
21.222828 120.79104 6.1181431
21.75679 120.73867 6.0566707
22.084206 120.83278 6.0332289
22.224316 121.04407 6.0422192
-0.82821274 122.3692 6.3985806
3.6681709 122.30552 6.0809789
4.2333899 122.48715 6.0502214
4.453795 122.73574 6.0470014
21.882933 122.57375 6.2465372
-0.59253311 123.87524 6.4585247
-0.38668346 123.9682 6.4488082
22.324436 123.90611 6.3501143
22.400366 124.06222 6.3599443
2.3921871 126.12056 6.3599086
2.8701611 126.18416 6.3290339
3.0803628 126.73032 6.3407307
3.2540336 127.24862 6.3535376
3.4042079 127.71427 6.3653641
3.5053253 127.97255 6.3706055
3.5618525 128.18311 6.3767133
15.976029 128.43007 6.4870205
7.9499607 129.15106 6.1045241
8.2744942 129.2132 6.0836258
8.3010578 129.85954 6.111918
8.8700294 129.57826 6.0568857
9.1351795 129.60759 6.0386958
4.2810683 130.28079 6.4253426
4.4333529 130.69759 6.4341092
4.5178547 130.99896 6.4422693
4.6169572 131.28731 6.4487119
8.3776417 131.27838 6.1723652
4.7600379 131.72575 6.4590092
8.508503 131.62793 6.1789055
4.9163151 132.1595 6.4680481
5.0031853 132.47693 6.476635
5.0533218 132.62897 6.4801092
8.7324562 133.66699 6.2564287
9.172411 133.6967 6.2249317
9.3293896 134.05347 6.2295542
16.948685 93.72654 6.6946502
17.160795 93.641068 6.6478105
46.804333 94.369865 6.5441823
47.205627 94.438843 6.6037545
19.622551 94.514587 6.9207606
46.831779 94.530525 6.5408797
47.157623 94.795616 6.5808187
18.587841 95.393265 6.6701574
19.819937 95.439499 6.7620735
20.203369 95.241211 6.669044
47.369656 95.089935 6.603147
47.546257 95.301132 6.624229
48.660175 95.448601 6.8013105
19.287868 95.84333 6.8855362
19.890781 95.569992 6.7273502
20.437565 95.839302 6.5350513
47.752724 95.84848 6.641283
19.978682 96.45311 6.6159339
49.857262 97.13591 6.9763737
54.782021 97.218918 6.8797512
47.307102 97.663765 6.5368943
53.652847 97.629013 6.7288017
19.793247 98.176468 6.551795
16.461035 98.865166 6.6888947
19.688038 98.800827 6.558526
54.193401 98.9534 6.836153
19.697746 99.362068 6.5376368
19.368841 99.624367 6.6462064
19.600199 99.574875 6.5666466
19.271154 100.47612 6.6769657
17.298321 100.63107 6.9299221
19.112394 100.77842 6.7368941
19.625067 100.50472 6.5518489
15.491507 101.00346 6.5122337
17.826107 101.33392 6.7836866
18.516766 101.46519 6.9681664
19.274771 101.41941 6.6945252
46.811401 101.09713 6.5086946
51.264465 101.42987 6.5154209
18.477224 101.59052 6.9871783
18.689468 101.74718 6.8679414
19.105585 101.89234 6.7741151
46.705513 101.84547 6.524579
51.93631 101.75697 6.6293592
18.448351 102.14816 6.6217189
18.744513 102.24454 6.7988868
51.464558 102.24078 6.5887179
51.515633 102.08118 6.5867796
18.852472 102.60745 6.713974
51.703835 102.5452 6.641654
9.9938698 103.45607 6.6350865
50.447517 103.28964 6.5095172
51.149445 103.1577 6.6016183
9.2289581 103.69736 6.7833738
9.8972921 103.56042 6.6586723
10.126407 103.81158 6.635808
19.936352 103.85333 6.6211157
9.9010887 104.15798 6.6983938
10.075821 104.27715 6.6764231
19.784124 104.29228 6.724153
50.064255 104.3395 6.5338964
9.4545975 104.98551 6.8339019
9.7410822 104.71288 6.7649097
17.93973 104.91958 6.5957546
18.259592 104.7851 6.8193994
18.73415 104.88495 6.7648907
49.718994 104.607 6.5066252
8.9152336 105.36865 6.9549098
9.1328545 105.23387 6.9074984
17.948404 105.22037 6.6259022
18.139023 105.26214 6.6915331
18.273428 105.67718 6.6983328
6.7601604 106.05813 6.5785141
14.717528 106.45412 6.575552
45.881447 106.2566 6.7561045
46.485985 106.00581 6.8323383
14.316206 106.56358 6.6681881
14.736997 106.61064 6.5864887
15.125992 106.78054 6.5235791
45.886005 106.50043 6.7864499
-0.53155518 107.4493 6.6172519
14.180216 107.39021 6.7768035
15.084202 107.01354 6.5551558
-0.64255905 107.62375 6.6396565
-0.1772275 107.85027 6.6068764
13.972021 107.74882 6.8555789
14.075846 107.51108 6.8102117
-0.89882183 108.41204 6.7161589
-0.20525169 108.11851 6.6269073
14.425472 108.2791 6.8198571
-1.1027546 108.94304 6.77104
-0.87842226 108.75983 6.7364736
14.513622 108.50904 6.8271456
-2.0066338 109.3662 6.8900518
10.645515 109.35126 6.990818
14.67743 109.3727 6.891818
10.848321 109.70665 6.9899979
11.961977 109.64477 6.7985425
12.180206 109.75976 6.7733722
12.626195 109.67065 6.6907434
14.968958 109.86955 6.8930597
15.00187 109.91475 6.8920555
12.189331 110.21246 6.815918
15.480498 110.1519 6.8279448
15.659963 110.17045 6.7955837
15.120382 110.84283 6.9833269
7.7645993 111.63593 6.865592
13.228342 113.25783 6.9675908
8.1980972 113.81965 6.9922333
41.365463 113.71693 6.8281856
2.1798832 114.10629 6.7811656
38.888527 114.33761 6.7836037
39.005978 114.30606 6.7835574
2.1632032 114.95789 6.8407841
38.37392 114.54796 6.8035269
38.88203 114.86932 6.9115281
39.097717 114.78423 6.9039526
35.668457 115.42107 6.920176
36.262539 115.28496 6.8989773
36.814041 115.0583 6.8582201
37.394115 115.46204 6.9848442
37.723553 115.34933 6.9703622
38.221855 115.18322 6.9524131
38.607243 115.05759 6.9417324
1.7336311 115.62208 6.929213
34.406471 115.95768 6.514955
34.560177 115.94126 6.5093284
36.663254 115.59673 6.9931974
37.190392 115.53713 6.9961562
32.962296 116.49117 6.6775975
33.249348 116.3866 6.6431999
33.749588 116.21655 6.5890961
34.178871 116.06718 6.5447168
31.464058 116.98135 6.8640299
31.754654 116.88483 6.8250265
32.23951 116.722 6.7620711
32.696365 116.56686 6.7055035
29.993269 117.49606 6.5358553
30.265074 117.33087 6.7508087
30.607964 117.1284 6.9511824
31.24617 117.07854 6.9006143
28.739645 117.91717 6.7303934
29.243725 117.74823 6.6502714
29.738325 117.58534 6.5749083
27.327309 118.39243 6.9691772
27.753824 118.23519 6.8919954
28.253376 118.0772 6.8095779
-11.569778 118.85374 6.9503584
-11.491043 118.99422 6.9526186
26.349506 118.96129 6.5931439
26.68508 118.85218 6.5385251
24.312805 119.42271 6.90377
24.756039 119.27085 6.8246088
25.269342 119.17231 6.7484989
25.754375 119.16119 6.6931086
26.101429 119.0467 6.6349039
23.930168 119.54081 6.9706078
24.06658 119.51038 6.9487786
22.746759 120.39557 6.5893521
23.171196 120.25432 6.5210009
-6.8400612 120.78304 6.7310667
-6.1685524 120.82764 6.6873841
-5.9525948 120.56068 6.6585221
20.481028 120.75852 6.9081678
20.75972 120.65816 6.8601332
21.243294 120.67233 6.8041201
21.733879 120.72528 6.7537007
22.228416 120.56709 6.6734471
5.2374668 121.40892 6.9880581
5.2950649 121.56313 6.9934926
5.6208715 121.77197 6.9766364
17.725803 121.7645 6.6015468
5.6955643 122.12329 6.9946604
-4.2227325 125.4726 6.7928071
-3.9979401 125.49559 6.7782969
-1.07271 125.03004 6.5502553
-3.9729729 125.64915 6.7843351
-33.747929 127.34242 6.5581231
15.84851 128.45932 6.501009
15.706318 128.51642 6.5184851
6.2556343 136.45914 6.5696239
6.3910065 136.65457 6.5685616
17.264767 93.512863 7.1747704
50.925598 93.771103 7.2231684
50.924263 94.02951 7.2140064
49.950104 95.332397 7.0171561
49.901314 95.560112 7.0038776
15.151602 98.363182 7.045639
58.245041 98.73085 7.4051523
16.398493 99.472679 7.1955891
17.701534 100.18385 7.2308474
50.079323 100.45853 7.0690594
50.511467 100.33969 7.1420274
49.970596 100.61594 7.0555124
50.023144 100.53763 7.0619421
50.701191 100.92405 7.1990395
18.376583 101.20719 7.0098252
50.881874 101.06313 7.237556
52.181442 101.05244 7.4704509
51.287979 101.88048 7.3514004
51.632103 101.82787 7.4105635
18.334965 102.24361 7.0700731
51.261097 102.4136 7.3775635
51.533428 102.06533 7.4059815
17.758286 102.67442 7.3051834
50.978638 102.87112 7.3559446
50.910973 103.13374 7.3617301
9.9210587 103.92552 7.3641939
10.148034 103.77898 7.3064051
50.990429 103.71249 7.4185777
9.6518402 104.22294 7.441865
18.727358 104.30831 7.1026726
18.490376 104.50658 7.2096143
18.688343 104.74698 7.1680527
18.425095 105.49351 7.3583589
18.616184 105.15382 7.2454362
19.049236 105.16962 7.0946116
8.3566828 105.88789 7.0898347
8.6539879 105.65838 7.0214133
18.360106 105.7356 7.1283355
18.527481 105.54247 7.3292952
15.304175 106.24355 7.3405752
14.452655 106.98042 7.2334638
14.779061 106.7167 7.1266251
15.048655 106.53319 7.0422368
13.991863 107.41003 7.3911605
14.294285 107.14188 7.2891145
14.867068 107.29032 7.1692824
3.5453682 107.69702 7.1328335
13.816902 107.64096 7.458931
14.75867 107.87444 7.2629776
4.3003259 108.26112 7.0708804
4.5530968 108.42786 7.0487361
4.4037662 108.64564 7.0850677
11.345509 108.69437 7.4847198
14.481546 108.75349 7.4356723
15.161752 108.7489 7.2769108
4.8716087 109.24451 7.0662904
10.404997 109.22003 7.0191278
10.644312 109.46136 7.0012035
12.732716 109.38001 7.2787423
15.764159 109.24547 7.2034569
-3.8378372 109.8821 7.1091266
10.689705 109.66327 7.0124569
12.394589 109.86664 7.4002519
12.825084 109.67523 7.2932577
13.072281 109.87091 7.2662654
15.370749 109.74764 7.3618965
15.791051 109.97233 7.2980037
10.576787 110.17099 7.0792837
12.863755 110.18127 7.3431168
13.269753 110.28042 7.2746086
14.450517 110.2727 7.0425658
14.520523 110.30369 7.0326743
15.417934 110.02991 7.3903742
11.457345 111.60818 7.0760202
8.0239258 113.72552 7.0069294
41.112419 113.89641 7.4640207
-0.49620819 114.18003 7.055099
8.2840681 114.19553 7.0136089
44.677849 114.32245 7.2623315
45.581284 114.37531 7.363625
7.759758 114.9387 7.1468897
8.1717911 114.59453 7.0630798
-22.176933 115.4598 7.4780164
7.6726017 115.3399 7.1935539
7.0790081 115.9053 7.3205643
34.70359 115.98767 7.0616279
35.402191 115.91244 7.0479946
35.901623 115.96526 7.071125
36.22591 115.85653 7.0495968
36.72641 115.68795 7.0193367
37.054916 115.58097 7.0024614
6.7978325 116.3941 7.4004116
7.0346947 116.09103 7.3427925
32.472797 116.49009 7.2302217
32.759338 116.40197 7.1972866
33.317577 116.37911 7.179234
33.719254 116.25825 7.1396856
34.277016 116.13745 7.1026292
34.725441 116.11433 7.0968866
35.246265 116.17801 7.1185741
35.645119 116.04512 7.0878944
6.6633234 116.69673 7.4448085
30.97842 116.99178 7.4389963
31.135807 116.95565 7.4201117
31.565426 116.81039 7.3568397
32.312222 116.61309 7.2708168
33.257633 116.71406 7.2756844
34.211075 116.54492 7.2167206
-2.8686428 117.08821 7.4903998
6.9275012 117.35101 7.4697146
30.217939 117.28027 7.0161414
30.80562 117.0469 7.4648852
31.877359 117.32484 7.4936194
32.15662 117.20638 7.4482841
7.057786 117.54151 7.4703064
28.189384 117.95812 7.358829
28.762247 117.95764 7.305934
29.213772 117.64678 7.1869888
29.830971 117.88418 7.2000127
30.121662 117.90819 7.1849275
30.88612 117.63683 7.0646524
31.04372 117.61974 7.0508246
27.067186 118.48047 7.0153537
27.898436 118.16444 7.4404969
28.376511 118.05209 7.3654103
28.716846 118.061 7.3368897
29.497988 118.12184 7.286869
29.70293 118.07178 7.2580552
25.309645 118.9268 7.3107972
25.808176 118.87461 7.2406783
26.255836 118.74664 7.1616488
26.739393 118.5877 7.0737281
24.411461 119.23592 7.489315
24.511463 119.21307 7.471643
25.243801 119.2363 7.3865485
25.595291 119.31098 7.360971
22.817955 119.9203 7.1758552
23.273249 119.76869 7.0917974
23.674824 119.63741 7.0188875
21.279894 120.43021 7.4665079
21.742491 120.27596 7.3778672
22.230759 120.11532 7.2856641
22.543442 120.01329 7.2272859
2.9001055 121.34371 7.2130785
3.4285526 121.4418 7.1680393
4.8159084 121.47155 7.0338836
5.0969334 121.38533 7.0001402
91.899216 121.48578 7.2537646
92.302773 121.25348 7.2448788
3.2882862 121.54564 7.1892476
91.873207 121.83536 7.286757
92.013275 122.23718 7.3305063
-14.214808 122.50909 7.3268089
-13.768477 122.75079 7.3092198
-13.871487 123.17229 7.3386669
5.7209759 123.30614 7.0777979
6.4793663 123.40244 7.011044
5.6855216 123.85193 7.1208954
6.4456797 123.80747 7.0438309
6.5337124 123.72086 7.0289788
80.611542 125.3298 7.3021593
80.483658 125.70171 7.3399391
80.452431 126.01016 7.3735681
16.246393 128.34789 7.4719591
16.440599 128.61148 7.4796782
16.501255 128.85788 7.4999652
-10.732578 129.37506 7.4446359
-10.062614 129.1199 7.385006
8.8248234 129.79202 7.2587652
9.0405903 129.99405 7.2535
9.0326328 130.20894 7.2703886
8.4681807 131.31726 7.406992
8.5451736 131.53015 7.4157295
16.856316 90.74221 7.531992
17.848444 92.7733 7.6368122
17.415695 93.257484 7.7109733
53.531063 93.885811 7.6446548
53.726402 94.236504 7.6687775
53.786919 94.699516 7.6698599
53.817673 95.008011 7.669991
55.30957 98.18605 7.9363337
52.757248 101.2137 7.5815253
52.60474 101.50679 7.568593
9.2913265 104.21171 7.5163298
7.9469738 104.91283 7.8490496
8.9664001 104.69397 7.6197996
9.08706 104.54247 7.5832806
7.8550873 105.15163 7.8864923
15.377338 106.02849 7.9602079
15.53013 106.08813 7.9195328
16.384268 106.80251 7.7471995
-0.86286259 107.41183 7.7142611
3.9478741 107.35386 7.9600215
4.1508293 107.40521 7.9292321
14.468425 107.38112 7.8417196
14.596775 107.29092 7.7953129
-0.60890704 107.69817 7.6996179
-0.39202881 107.74707 7.6734214
4.0850372 107.55389 7.952219
14.24333 107.74872 7.9501162
14.998867 107.78275 7.7491484
15.208432 107.84152 7.7002583
-1.0416822 108.40388 7.8085499
-0.4489851 108.07559 7.7043915
15.119225 108.14143 7.765131
15.69248 108.37724 7.6445465
16.033472 108.14831 7.520689
11.225882 108.66644 7.5060806
15.729133 108.76869 7.6915169
-1.8839922 109.1292 7.9753237
10.838254 109.26682 7.6468811
11.267576 109.10731 7.5434551
12.752637 109.29523 7.9073186
15.852871 109.10773 7.7095604
16.029861 109.02036 7.649703
10.820179 109.64899 7.6911111
11.198046 109.81214 7.632946
11.530128 109.60466 7.5438581
16.202112 109.64853 7.7025375
16.307001 110.15508 7.7577944
16.542309 110.25279 7.7140727
14.834482 110.94902 7.6526313
-8.9647293 111.15737 7.7115498
11.661816 111.38267 7.7198997
14.26329 111.08151 7.7996778
14.975718 111.06409 7.637826
11.584267 111.57701 7.7581706
12.142159 111.73772 7.6688538
20.216557 111.86568 7.6223555
11.76742 112.18069 7.7956128
12.08438 112.43613 7.7660728
20.376411 112.091 7.6364999
20.64563 112.09119 7.5712895
2.4418716 112.90537 7.6785579
12.709057 112.80507 7.693264
13.155348 112.87536 7.617691
20.917835 112.83698 7.6897407
1.8338966 113.03387 7.7701774
7.7643585 113.38724 7.8606315
12.953121 113.12953 7.6890044
7.791563 113.70114 7.8882847
7.4001656 114.05616 7.9885526
7.7229342 114.21718 7.9528074
44.435295 114.38689 7.9723258
44.517628 114.36398 7.9775314
40.224434 114.71544 7.5807524
44.057888 114.52149 7.9560742
2.4039555 115.23001 7.8745971
38.100323 115.36908 7.5826855
38.872627 115.1064 7.5668817
45.079739 115.37845 7.5164595
-22.540638 115.74255 7.5183825
34.709061 115.98985 7.614624
36.454895 115.90198 7.6436653
36.532677 115.87605 7.6394444
37.256477 115.62502 7.6028013
44.976967 115.51374 7.5348039
34.368057 116.15057 7.6596947
34.559803 116.01849 7.6209512
35.263226 116.43803 7.765696
35.713131 116.15565 7.6916084
33.63726 116.85422 7.8799524
34.227394 116.77924 7.8569369
35.12505 116.52345 7.7889743
-3.8820953 117.26864 7.6043062
6.5207157 117.40213 7.5265737
29.468288 117.49461 7.6880651
29.752209 117.41315 7.6423826
30.255026 117.28564 7.569324
30.592556 117.18498 7.5180535
31.403648 117.44635 7.5505366
31.650867 117.40829 7.5278311
32.810379 117.1168 7.9739418
5.4773102 117.74319 7.6915536
5.8185644 117.69442 7.6432314
28.467855 117.82954 7.8740673
28.74192 117.74448 7.82371
29.262228 117.61478 7.7404609
30.414698 117.95273 7.7557912
30.637384 117.83605 7.707335
4.7897243 118.0701 7.8095102
26.924545 118.40959 7.6061945
27.227556 118.34034 7.5553732
27.627605 118.37738 7.5228682
30.18959 118.09913 7.8140979
5.4022198 118.86942 7.8031554
25.266991 118.92262 7.9373002
25.854759 118.73411 7.814971
26.229116 118.61047 7.7379565
26.664795 118.64935 7.6971803
27.330858 118.60165 7.6116662
5.1576595 119.28434 7.872324
24.23674 119.29148 7.5237594
25.030396 119.02272 7.9936137
26.300419 119.18831 7.8777604
4.9916 119.77266 7.938292
5.2124124 119.70206 7.9036956
22.427746 119.90961 7.9015722
22.663254 119.8114 7.8474665
23.384775 119.56748 7.695827
23.567364 119.50959 7.6587968
24.447937 119.84219 7.6161981
24.733419 119.74575 7.5596695
-22.748512 120.49687 7.796967
22.779781 120.38332 7.9531593
23.240564 120.23961 7.8596439
23.730894 120.08297 7.7605906
-22.26012 120.52763 7.7656484
-21.873489 120.79111 7.7539535
20.811422 120.56194 7.5528688
21.017 120.51749 7.5171762
-22.108677 121.48071 7.8075929
-21.183395 121.33662 7.7370777
-21.083763 121.59827 7.7445912
-20.931976 122.42216 7.7790771
-22.685766 122.62189 7.9088669
-20.812412 122.99055 7.8017297
-21.145351 123.32169 7.842236
-0.62101173 123.35756 7.7032461
-15.788322 124.27969 7.5284696
-16.009205 124.57159 7.5590501
-16.63797 125.28573 7.6398792
1.3832321 126.44019 7.7276096
1.7178688 126.31647 7.6860204
2.0173855 126.21227 7.6492772
0.41142464 126.7655 7.8459725
0.72843742 126.66594 7.8078275
1.0714245 126.54108 7.765327
3.360431 127.33569 7.6005268
92.254967 127.4818 7.8732162
92.527954 127.33461 7.8657937
3.4778109 127.66206 7.61303
3.5681095 127.93034 7.6239429
3.6472607 128.11824 7.6300673
15.870625 128.43317 7.5217748
89.516968 128.3707 7.8889384
15.658249 128.51585 7.55373
-17.093033 129.33296 7.8831415
86.707703 129.32541 7.9168649
4.3917789 130.38603 7.7255297
4.4612331 130.60294 7.7349353
4.5465784 130.80847 7.7419958
4.6824923 131.25085 7.7618265
4.853508 131.7571 7.7831192
-10.62627 132.00528 7.5702014
4.9448605 132.06497 7.7973213
5.0319443 132.28104 7.8051214
5.1271276 132.58595 7.8187971
8.7321596 133.63193 7.5566044
9.2371616 133.67789 7.5127459
9.4351826 134.09062 7.5254688
-0.5544548 147.56891 7.5889578
16.132587 93.916489 8.0400543
55.849258 93.985443 8.0279999
57.585148 97.808434 8.3306904
57.291164 99.235741 8.3152046
57.082676 99.554596 8.2886448
56.099339 101.63004 8.204052
8.6748285 104.33447 8.3967495
8.6439714 104.55308 8.4212837
6.7260952 105.16996 8.1233158
7.395731 105.70409 8.0256405
14.814022 105.95758 8.1290703
15.841893 105.91733 8.3246403
16.511253 105.9558 8.0942869
14.946392 106.00441 8.0929546
15.040215 106.03353 8.0669222
15.655709 106.11341 8.4165916
16.321547 106.27345 8.2052851
2.8060799 106.91959 8.1226406
3.0192547 106.97297 8.0900612
14.685791 106.79678 8.2745485
15.341831 106.89149 8.0828161
15.796746 106.86185 8.4746628
