# .PCD v0.7 - Point Cloud Data file format
VERSION 0.7
FIELDS x y z
SIZE 4 4 4
TYPE F F F
COUNT 1 1 1
WIDTH 1535
HEIGHT 1
VIEWPOINT 0 0 0 1 0 0 0
POINTS 1535
DATA ascii
36.197617 6.2596097 -0.45797127
36.727539 6.1857233 -0.49284223
40.046181 6.4829106 -0.052721858
6.2388434 6.5646105 -0.20614523
10.150679 6.7580838 -0.40387258
12.925586 6.714715 -0.49926001
19.859282 6.646256 -0.094949976
20.268364 6.7025037 -0.099793687
20.752146 6.6960354 -0.078703076
21.243401 6.775866 -0.089228362
21.570055 6.8514223 -0.10387358
36.432617 6.632772 -0.49307004
36.606331 6.5110245 -0.49956566
40.092133 6.6374035 -0.059945166
47.45652 6.8988338 -0.36202174
10.640985 7.4843464 -0.40680802
13.297797 7.0202417 -0.48600715
13.606592 7.4948001 -0.49924189
19.736176 7.4675579 -0.023466825
22.253525 7.3211303 -0.2712326
32.899384 7.3801918 -0.28777266
33.353275 7.4456253 -0.32224983
33.543499 7.2982001 -0.32642594
47.356972 7.2648134 -0.36986607
6.8723249 7.6407318 -0.21215701
7.0905132 7.8331389 -0.20763195
10.835912 7.7294436 -0.40666327
11.066112 7.9732361 -0.4040122
13.858557 7.7199335 -0.49624902
14.004564 7.8916101 -0.4993462
22.293524 7.7132225 -0.096534893
30.787113 7.7428408 -0.17403179
33.026485 7.7379212 -0.31817129
7.2417092 8.2316723 -0.21646789
11.28224 8.2492094 -0.40584192
14.262469 8.0973148 -0.4959715
20.791744 8.2766008 -0.11546543
22.227966 8.302269 -0.35625926
22.762047 8.2861252 -0.38208693
23.236944 8.2876234 -0.39901417
23.747705 8.3591843 -0.43383843
24.248777 8.4027119 -0.46765006
24.59622 8.4233665 -0.49168774
11.459117 8.5266495 -0.41166455
11.661901 8.7633486 -0.41330579
22.234308 8.6450224 -0.18580051
22.777008 8.7703533 -0.19390357
23.24782 8.8789673 -0.21970852
23.740013 8.8629704 -0.23187029
24.248827 8.8355274 -0.24647169
24.748993 8.8121166 -0.26455677
25.241911 8.785428 -0.2849111
25.744904 8.7600403 -0.30872086
26.241852 8.7362375 -0.33497033
26.74814 8.7112923 -0.36403993
27.249004 8.6894474 -0.39526662
27.734404 8.661684 -0.42668292
28.232281 8.6399689 -0.46139336
28.606979 8.6208868 -0.48824081
30.779861 8.6235342 -0.23608249
7.8719549 9.3058815 -0.23078662
11.898143 9.1019726 -0.42088917
12.077528 9.3626394 -0.42782789
20.289742 9.4443932 -0.1362669
20.56576 9.4259539 -0.28471094
22.142735 9.2168694 -0.24841124
24.907707 9.1587801 -0.0065221041
25.233559 9.2740822 -0.027725989
25.750811 9.3682766 -0.053831857
26.262728 9.342577 -0.069856256
26.76198 9.3132372 -0.086779624
27.255379 9.2962961 -0.10610931
27.752161 9.274209 -0.12649797
28.25419 9.2496653 -0.14818974
28.73348 9.2248354 -0.16989523
29.213531 9.1971598 -0.19241898
29.731102 9.1774864 -0.21855038
30.248631 9.152914 -0.24523678
30.766045 9.1286488 -0.27282691
40.681549 9.4499607 -0.19009304
41.742123 9.097764 -0.21588121
8.177124 9.7375937 -0.23520981
12.344137 9.6104479 -0.42795712
12.672347 9.8999968 -0.4281235
20.277025 9.5128546 -0.30255076
22.174513 9.6133318 -0.0096691251
36.665871 9.96978 -0.067204297
41.468552 9.6515417 -0.22780794
41.512226 9.5855799 -0.22675639
8.4073734 10.093309 -0.24067393
8.6701012 10.368551 -0.24086422
9.7603111 10.174544 -0.17290658
12.915012 10.062428 -0.42464757
13.200728 10.27619 -0.42350325
13.718952 10.306149 -0.39123377
14.155262 10.066057 -0.34104866
33.05579 10.065317 -0.47677869
36.748173 10.12078 -0.077089608
37.053715 10.14674 -0.088966154
41.17337 10.236922 -0.24118865
8.8988056 10.637149 -0.24293256
9.0973091 10.866147 -0.24486342
13.371406 10.510202 -0.43254405
13.750069 10.759204 -0.43027344
14.236899 10.834362 -0.40660641
14.738592 10.887877 -0.38144177
15.248947 10.878987 -0.35138381
15.749381 10.923219 -0.32855827
16.175331 10.952736 -0.30965683
17.190781 10.891313 -0.25626057
36.780754 10.577969 -0.099746048
41.424564 10.906785 -0.2790727
42.315216 10.694936 -0.30265325
9.2895489 11.082026 -0.24673319
9.7645168 11.118459 -0.22453499
10.273658 11.103304 -0.1981269
10.731538 11.11691 -0.17628175
11.2541 11.075156 -0.14849722
11.710628 11.145733 -0.13094814
12.257621 11.127254 -0.10442331
12.722498 11.27335 -0.092364833
13.285267 11.274636 -0.067782596
16.351711 11.032242 -0.30895123
16.666479 11.182411 -0.30939686
17.614851 11.193821 -0.27034932
13.415723 11.609654 -0.083425924
13.752631 11.742261 -0.077992693
14.104724 11.90648 -0.07449314
15.404377 11.79128 -0.017936528
16.846279 11.680561 -0.35240921
17.206751 11.759491 -0.34552735
18.785229 11.936342 -0.30989248
21.072813 11.808371 -0.25248376
14.308885 12.06682 -0.077057086
14.726966 12.255168 -0.073821098
15.316709 12.434222 -0.064763881
16.796682 12.019664 -0.38943642
17.245741 12.434666 -0.41435724
19.436583 12.458258 -0.34965414
20.460184 12.150578 -0.29718548
20.754141 12.102926 -0.28812033
14.806225 12.552439 -0.090833366
15.121792 12.635125 -0.08520259
15.671142 12.730597 -0.073086344
18.404411 12.719291 -0.40484428
18.802784 12.652281 -0.38635501
19.051704 12.902631 -0.40680712
15.880534 13.182062 -0.097574376
16.112535 13.255379 -0.095470764
16.862059 13.469617 -0.088693559
18.455704 13.090512 -0.44307274
18.936069 13.231279 -0.44516134
19.254009 13.316338 -0.44671249
19.888668 13.371962 -0.43954706
16.312548 13.684934 -0.11966072
16.551226 13.899083 -0.12788302
18.965069 13.716081 -0.49673313
19.460554 13.612973 -0.47420043
19.651457 13.710084 -0.48082289
16.636837 14.150031 -0.14331192
36.371037 14.382767 -0.28273258
36.761753 14.370576 -0.29347745
37.225548 14.345342 -0.30586696
37.731472 14.320097 -0.31976599
38.259045 14.295736 -0.33465719
39.384369 14.254166 -0.36781636
40.369244 14.197985 -0.39672911
40.651573 14.141809 -0.40317392
41.215855 14.15971 -0.42271155
41.735134 14.130254 -0.43860245
42.161282 14.089814 -0.45100412
42.585239 14.087631 -0.46529102
43.254219 14.065262 -0.48715127
15.783439 15.354005 -0.25288159
17.905472 15.253131 -0.19106373
18.264957 15.213801 -0.18049586
18.758783 15.218846 -0.17098752
19.228352 15.196876 -0.16081366
19.667654 15.179006 -0.15220091
20.247009 15.153526 -0.14187013
20.751831 15.122251 -0.13317347
21.214231 15.098273 -0.12643088
21.753153 15.070082 -0.11958046
22.254477 15.04408 -0.11423042
22.734135 15.026663 -0.11054634
16.32045 -24.11083 0.017167827
16.635035 -24.304535 0.017592981
16.316179 -23.797499 0.026581347
12.794867 -21.696249 0.0020915568
31.833376 -21.866871 0.1526162
32.263718 -21.72337 0.15132198
32.083118 -21.460592 0.16026515
36.597294 -18.259571 0.1573464
37.13496 -18.230576 0.14610624
36.326302 -17.522356 0.17759979
37.486923 -17.688248 0.14819652
12.830294 -17.309063 0.12409246
40.407623 -17.196901 0.082960427
40.562351 -17.155415 0.079404354
42.420441 -17.084179 0.028646052
40.453465 -16.676865 0.0892694
40.722019 -16.732599 0.081056394
41.033939 -16.508797 0.075513661
15.471368 -16.070251 0.23616302
15.530363 -16.08427 0.23732764
36.212181 -16.043488 0.20780596
40.466526 -16.375134 0.093154609
40.664291 -16.180447 0.090275168
14.991362 -15.899192 0.22791141
15.214293 -15.924968 0.23335092
40.450264 -15.634286 0.10360414
40.63961 -15.678216 0.097642958
40.625095 -15.250269 0.10348427
42.796928 -15.38638 0.037360132
17.741312 -14.648496 0.33267063
40.72438 -14.810657 0.10591611
40.691975 -14.221738 0.11363697
41.059574 -14.169741 0.10311943
17.931318 -13.960505 0.35743076
19.17219 -13.151292 0.40590736
18.691807 -12.602036 0.4139697
19.099941 -12.727355 0.41767353
18.874504 -12.38043 0.42419165
19.048309 -12.362864 0.42793196
17.311178 -11.592259 0.4136585
17.522635 -11.640516 0.41745892
41.875198 -11.658873 0.098597229
43.514259 -11.826544 0.04231292
12.377319 -11.305891 0.25727841
17.640011 -11.300984 0.43028793
21.171545 -11.467705 0.48560506
27.422119 -11.286878 0.4777019
42.29285 -11.214528 0.087099493
12.452816 -10.777411 0.2719782
42.128574 -10.82056 0.094691157
12.481438 -10.25526 0.28438139
27.9597 -10.129543 0.025280833
28.042355 -10.084108 0.024799496
42.930939 -10.283086 0.068955362
12.471438 -9.7326937 0.29485068
15.350618 -9.7659988 0.40596277
35.360542 -9.5407982 0.32556236
11.017958 -9.1646671 0.24021083
12.327583 -9.3372202 0.2965501
14.287193 -9.029418 0.3847357
14.747607 -9.0468893 0.40201479
15.241747 -9.1330929 0.29347664
38.089512 -9.1023436 0.24109733
39.102951 -9.1688738 0.20637089
42.293316 -9.3796091 0.093970284
14.25382 -8.8468714 0.38758081
14.749331 -8.756423 0.37209633
15.123809 -8.7376146 0.17310095
16.811573 -8.5854635 0.48506108
25.25172 -8.6526699 0.18818334
25.7983 -8.5568914 0.17966934
26.054768 -8.5947475 0.17023948
38.238628 -8.9906721 0.23671907
39.709305 -8.8085651 0.18693098
40.047897 -8.592761 0.17574781
42.680023 -8.6001272 0.081100047
14.994787 -8.4574213 0.024024904
15.029079 -8.4779139 0.02484268
16.83754 -8.3271141 0.49280804
25.823416 -8.3921566 0.1883316
26.255871 -8.3512821 0.17765495
35.545818 -8.1210127 0.3320905
40.390003 -8.2531672 0.16437978
42.844334 -8.290061 0.075097673
43.169548 -8.223527 0.063100755
11.963204 -7.8910561 0.30616176
12.320118 -7.9661131 0.32168031
22.298161 -7.6383333 0.29231232
22.633484 -7.7912469 0.28110752
34.494915 -7.7471313 0.36918217
34.810833 -7.8181558 0.35836664
35.28381 -7.7776885 0.34312555
35.542252 -7.7988501 0.33441359
36.179962 -7.6928692 0.31361145
36.829033 -7.7054129 0.29137307
37.183479 -7.6825943 0.27923536
39.44157 -7.5848165 0.19959664
39.850357 -7.50214 0.18490678
40.340755 -7.7319326 0.16688183
42.935749 -7.9409876 0.071554661
43.230469 -7.8359909 0.06045936
43.903595 -7.7853179 0.035190046
44.007748 -7.637229 0.030967474
11.311628 -7.0410967 0.28690177
33.820137 -7.3606739 0.394072
35.903191 -7.0745163 0.32611972
36.920662 -7.0414743 0.29073435
37.634209 -7.2635984 0.26487583
39.293587 -7.3987322 0.20519418
44.757637 -7.3182821 0.0016509593
11.320706 -6.8230886 0.29019862
14.409264 -6.5801969 0.44206452
36.155422 -6.9760504 0.31777871
11.386801 -6.2419071 0.30066574
12.983702 -6.1405368 0.0008263588
17.657495 -6.1253734 0.004965941
18.103069 -6.2614951 0.017505074
36.604263 -6.4568324 0.30346578
11.383725 -5.7160692 0.30616787
12.785202 -5.7495551 0.19130006
13.046692 -5.9542522 0.13747413
14.702559 -5.7262998 0.47126037
17.372623 -5.6750112 0.24975035
17.666075 -5.721014 0.065430783
18.091801 -5.7944117 0.060499739
8.1112442 -5.3816462 0.12654787
8.7352619 -5.2632627 0.16272715
9.2501516 -5.3058362 0.19184048
9.5386009 -5.3249187 0.20804113
10.808141 -5.4336133 0.27773511
11.163363 -5.4680891 0.29673791
14.354909 -5.182713 0.40992033
14.547544 -5.3314905 0.47100726
17.29834 -5.2111206 0.087736569
17.627142 -5.1203351 0.0934164
21.113342 -5.3201947 0.23327303
21.643291 -5.3525791 0.20392214
14.451851 -4.6181707 0.42673969
14.719773 -4.6721044 0.48985633
16.354603 -4.6664138 0.034520745
16.942488 -4.7451735 0.20093749
17.161362 -4.8148441 0.17886244
21.369007 -4.8747702 0.030191325
26.367081 -4.6902599 0.069697917
27.19104 -4.6391225 0.31822211
27.675692 -4.7107167 0.28978267
30.317717 -4.8775039 0.13064188
30.509563 -4.8401113 0.11974931
14.446724 -4.4820652 0.47928777
16.807392 -4.2417512 0.28261647
17.156096 -4.3036461 0.12868184
25.964081 -4.0299129 0.14411849
26.192047 -4.1370888 0.12011877
26.86858 -4.2468987 0.35035062
27.103294 -4.4467764 0.33036399
27.841137 -4.2447596 0.2971479
43.868343 -4.1585851 0.016970137
16.342302 -3.528434 0.27397361
16.769339 -3.7128077 0.19911827
17.082718 -3.7672558 0.16532607
25.967318 -3.9788551 0.1473355
26.29327 -3.7629712 0.13658658
26.797512 -3.7378685 0.37310106
27.148445 -3.6455545 0.32009521
30.83807 -3.5437002 0.12670219
35.397427 -3.7679806 0.34620082
38.55035 -3.8364792 0.22447766
14.210897 -3.0137324 0.48295462
16.497185 -3.3410611 0.14397043
16.624483 -3.4250069 0.15000778
20.488842 -3.2100427 0.13880791
20.692087 -3.1408522 0.26826575
26.422441 -3.4611907 0.14493212
26.753866 -3.2729461 0.15051822
27.32793 -3.3134348 0.3352747
27.558146 -3.2197652 0.34556144
28.125763 -3.1247463 0.31285542
28.50692 -3.0397716 0.29053479
29.283663 -3.203042 0.23644522
29.602734 -3.1447978 0.2165297
30.457001 -3.1762142 0.15858179
30.733145 -3.1876416 0.13956311
31.230804 -3.0838604 0.10691342
31.724819 -3.0963993 0.072448954
13.994008 -2.7233615 0.47279328
14.190355 -2.8111122 0.33929312
16.172716 -2.7758887 0.25863278
26.932404 -2.9149384 0.13112494
27.23863 -2.7691588 0.1103268
27.767723 -2.6799936 0.064975947
28.188017 -2.8136859 0.2107159
29.142855 -2.7789822 0.25394574
30.794434 -2.9173536 0.13931242
31.285194 -2.9372852 0.10501254
32.136139 -2.9688392 0.04506892
23.885756 -2.1872993 0.088012256
24.108416 -2.1078396 0.24157079
-6.3441734 -1.5023667 0.16214854
-0.62627667 -1.7580153 0.32981908
0.15345955 -1.6933829 0.35077035
1.1219902 -1.76151 0.37954572
1.6472912 -1.8124305 0.39539492
2.2347267 -1.8485093 0.41271463
3.2004204 -1.8404959 0.43993238
3.8659878 -1.8117243 0.45825633
4.2892485 -1.8221911 0.47042105
4.6690006 -1.8371879 0.48142934
15.334908 -1.7179024 0.20329955
24.098589 -1.887807 0.26290831
-7.0365162 -1.1821033 0.13613886
-6.3535714 -1.2398742 0.1567499
15.379344 -1.2477369 0.2362358
23.970139 -1.0373927 0.20764707
24.117249 -1.1411997 0.25208575
25.747931 -1.0312072 0.12883379
-6.0438628 -0.8072688 0.15705514
-5.9094572 -0.56350946 0.1560339
0.038856506 -0.93748474 0.33312261
1.5555019 -0.87152922 0.37506217
3.2300587 -0.79846227 0.42135042
4.8635201 -0.76751804 0.46725035
6.7826681 -0.72757924 0.022620499
7.6627288 -0.73706132 0.078170754
15.348385 -0.74306571 0.24526878
23.954044 -0.92946613 0.081135273
24.120052 -0.93254817 0.19589013
25.454969 -0.98801672 0.16909218
-5.7071328 -0.22999135 0.15509875
11.409664 -0.22114462 0.30724314
11.844272 -0.2179202 0.17465656
12.248076 -0.23987727 0.20608772
12.748351 -0.24820395 0.24609976
13.261059 -0.26079375 0.32095158
13.756251 -0.30170384 0.3353959
14.254404 -0.3620477 0.29814216
14.749026 -0.36833337 0.1870324
15.150393 -0.44804689 0.20671457
-5.3686123 0.25157589 0.15496247
-5.111474 0.66959071 0.15367901
-4.8216457 0.9491148 0.1561307
-4.615643 1.177177 0.15721832
-4.4670849 1.3929856 0.1568909
-4.24125 1.7410816 0.1558914
-4.0964384 2.2668087 0.14861745
-3.8754871 2.7713604 0.14379419
-3.7462966 3.2806513 0.13605568
15.27019 3.4549491 0.2894195
-3.6293869 3.7858868 0.12787093
15.304653 3.6297169 0.25089219
20.239902 3.5966852 0.2967273
-3.526022 4.1607199 0.12215706
-3.4279175 4.4076829 0.11918519
32.919384 4.4509177 0.29940745
35.054039 4.4775691 0.21344966
-3.3510799 4.7437229 0.11345144
14.153305 4.9815836 0.21076976
19.860222 4.6833267 0.32049215
20.046408 4.7305183 0.30269644
31.415091 4.8730202 0.34310102
31.776148 4.8228521 0.33100289
32.911331 4.6042056 0.2944178
34.374004 4.7013636 0.23315445
34.805267 4.6011829 0.21933155
35.29261 4.8474736 0.19169813
-3.5036278 5.0255694 0.10242075
-3.3564947 5.2994866 0.10002711
7.3988552 5.2342377 0.40512288
7.5383973 5.3734007 0.40536937
14.289785 5.1190376 0.19135402
31.464207 5.02244 0.33552349
33.866829 5.244307 0.23410743
34.318668 5.2326527 0.21684259
-3.2485824 5.7584777 0.091966689
-0.37047386 5.7698846 0.17309767
0.79565907 5.78719 0.20556851
6.492034 5.9598222 0.36075526
6.7008729 5.9724636 0.36621696
7.4929075 5.5381866 0.39975935
32.021469 5.9872484 0.27593029
37.175465 5.9598107 0.078766108
-3.2111611 6.1385107 0.083705008
-0.45093346 6.4900851 0.15276617
0.67420959 6.0713863 0.19501239
6.7355475 6.2648687 0.3593241
31.858479 6.0143714 0.2808671
32.155579 6.0911894 0.26662832
84.322128 6.0298772 0.37926441
-0.96033096 6.9358034 0.12710422
-0.41736794 6.560719 0.15191734
6.4626427 6.8673897 0.33540219
6.6845613 6.64398 0.3476266
21.571869 6.7034245 0.49463385
-2.9142768 7.1979103 0.065536857
-0.75637627 7.124331 0.12797867
-0.45959759 7.3229704 0.13115242
6.4828568 7.3811221 0.32169998
6.692872 7.4361353 0.32587224
20.755569 7.4407921 0.0047439458
32.854904 7.2625313 0.19066679
33.412781 7.2712755 0.17015308
33.585274 7.2496834 0.16477528
6.7880902 7.7499485 0.31956562
22.312439 7.7806244 0.18654531
32.948814 7.5711336 0.17347604
33.092014 7.7797761 0.15892519
6.8043246 8.2520819 0.30558422
22.338881 8.295785 0.13124815
30.862537 8.4296103 0.20228833
6.8182378 8.610569 0.29553217
22.368315 8.5627232 0.36073083
30.84655 8.6263914 0.19258577
19.996317 9.2076998 0.29211408
20.337996 9.3330488 0.25346404
20.643034 9.2783957 0.16760086
22.320318 9.214427 0.070469186
22.835346 9.3094501 0.12173928
23.219784 9.2293777 0.067032054
23.756334 9.1569052 0.021462277
24.259874 9.1198645 0.014442101
24.6581 9.0999069 0.0063439477
6.8354697 9.7969656 0.26066068
22.29631 9.5660801 0.2875289
22.683882 9.5102682 0.29197192
23.300535 9.6559563 0.28029612
23.749479 9.768609 0.27013096
24.236637 9.7397795 0.26870176
24.745722 9.7202568 0.26514822
25.254915 9.6947651 0.26074448
25.746899 9.6588812 0.25610572
26.249096 9.7925529 0.23915516
26.742403 9.9309273 0.22137399
27.244158 9.9086189 0.21308859
27.76734 9.8792849 0.2039348
28.255552 9.860322 0.19410491
28.7397 9.8346968 0.18407814
29.247196 9.8048229 0.17308252
29.745728 9.7639866 0.16230965
30.217598 9.8186007 0.14632793
30.819324 9.5475035 0.14421582
32.944939 9.5297651 0.07948333
33.432079 9.7285986 0.053668261
33.580471 9.894618 0.040482998
6.825316 10.254868 0.24645746
22.217081 10.089309 0.24910337
30.791002 10.028805 0.11844862
31.05204 10.040602 0.11035621
32.881126 10.011343 0.056805044
33.527641 10.016897 0.03598544
6.8530478 10.622806 0.23586954
5.8983212 11.440828 0.18603486
6.1951294 11.390751 0.19518933
6.7331762 11.242123 0.21355212
7.2073135 11.268585 0.22475052
7.6858649 11.384939 0.23310931
8.9119673 11.373707 0.26388979
7.9176884 11.681401 0.22940721
8.3004122 11.701614 0.23822181
8.8357382 11.763237 0.24932794
9.0378885 11.806979 0.25280842
20.677961 11.719338 0.35927317
21.284746 11.694755 0.3259216
8.985136 12.148393 0.24030519
9.1156549 12.285699 0.23888728
20.945801 12.019042 0.097929083
39.18726 12.15337 0.48591757
41.385548 12.414517 0.46916831
9.1930838 12.779889 0.22426963
9.2139893 13.352076 0.20551641
9.6954412 13.431476 0.21398425
10.136874 13.324508 0.22775181
10.958574 13.01187 0.25712341
11.22022 13.445465 0.24788457
8.6282759 13.528384 0.18586069
9.3897419 13.546492 0.20301816
10.211923 13.671667 0.21752763
10.595118 13.776587 0.22249788
10.279228 14.211379 0.20035097
10.877403 14.207902 0.21367699
11.150344 14.348728 0.21466535
12.761642 15.490865 0.2071389
13.259037 15.469826 0.21767893
13.768141 15.443948 0.22842175
14.264535 15.420184 0.23863319
14.741988 15.402399 0.24806133
15.236956 15.376657 0.25788391
15.750295 15.353863 0.2676791
16.220308 15.333069 0.27641627
17.957458 15.249792 0.30690789
18.267141 15.207631 0.31302428
18.760199 15.215673 0.31965834
19.291252 15.182948 0.32807043
19.692293 15.168479 0.33380121
20.367172 15.122433 0.34382552
20.70224 15.12064 0.3477706
21.274515 15.089212 0.35528934
21.799063 15.063548 0.36169124
22.801807 15.014317 0.37295645
9.7487059 15.621388 0.13944811
10.289744 15.597331 0.15205
10.752378 15.584288 0.16242032
11.248025 15.557877 0.17382842
11.719716 15.535566 0.18443193
12.250128 15.517326 0.19592482
12.755122 15.501471 0.20663124
16.148199 -30.197321 0.94354004
16.424292 -29.839478 0.94588405
16.522795 -29.93009 0.94758147
12.358162 -25.355366 0.86591673
17.568083 -21.250818 0.9272359
12.769423 -17.309002 0.83360249
11.576766 -15.813674 0.80290359
11.635911 -15.285106 0.80091137
16.092972 -15.101418 0.87971759
15.872923 -14.720017 0.87442797
16.389988 -14.385635 0.88124704
12.201805 -13.640577 0.80209577
14.084233 -13.844835 0.83917439
13.162321 -13.245922 0.8185432
13.688022 -13.252403 0.82859868
18.923414 -13.41494 0.91445273
19.155161 -13.34982 0.91726714
13.362561 -12.58952 0.81856984
13.620999 -12.78868 0.82470036
19.641544 -12.604826 0.92065716
46.076908 -12.619109 0.95719892
12.044172 -12.233264 0.7899304
12.810223 -12.370212 0.80636859
13.178495 -12.299667 0.81323737
18.478689 -12.193251 0.90342075
18.671719 -12.342855 0.90673429
12.209208 -11.848776 0.79078496
12.897478 -11.901005 0.80518371
15.154845 -11.943008 0.84857488
16.766153 -11.684257 0.87505686
18.407034 -11.551685 0.89976817
18.578018 -11.629792 0.90253073
19.374477 -11.530231 0.91302133
21.043224 -11.607942 0.933402
24.466387 -11.503463 0.96257293
27.909988 -11.575386 0.97857952
44.60144 -11.637667 0.95072252
83.753181 -11.679165 0.7390402
17.538187 -11.090448 0.88475072
19.469807 -11.482605 0.914083
19.685335 -11.351416 0.9163475
24.412924 -11.48507 0.96214485
13.321301 -10.572945 0.80528307
17.268671 -10.810942 0.87922639
18.368694 -10.93677 0.89666939
19.902992 -10.84656 0.91714895
21.022085 -10.942363 0.50043619
26.793495 -10.634419 0.96968287
28.263506 -10.591726 0.9733659
28.528404 -10.545475 0.97355247
29.135496 -10.69482 0.97546041
35.811672 -10.759643 0.97057587
12.499584 -10.331977 0.78648412
17.766205 -10.486723 0.88565993
21.219862 -10.22714 0.93003958
21.774588 -10.229471 0.93570966
25.460373 -10.001532 0.9609791
26.352814 -10.301814 0.96627265
27.336704 -10.414543 0.73517656
27.642786 -10.100792 0.50372863
28.317957 -10.400439 0.97223234
28.626673 -10.365062 0.9725098
12.448686 -9.8558235 0.78197151
16.671644 -9.537919 0.86320662
21.305593 -9.8273115 0.9294036
21.536505 -9.6778679 0.93122011
25.238159 -9.7472372 0.95863605
26.461464 -9.6211681 0.9628548
27.176437 -9.8671503 0.85251188
29.482279 -9.7727766 0.96917772
29.548149 -9.7774019 0.96924168
35.046295 -9.7766485 0.96230507
71.042221 -9.9563475 0.78405982
12.347916 -9.343976 0.77595812
14.441149 -9.0006304 0.81796205
14.650764 -9.1059275 0.82285911
23.240427 -9.0435066 0.94349575
24.461254 -9.1823921 0.951913
25.227417 -9.1500473 0.55785251
26.486956 -9.3086166 0.96113592
29.925533 -9.387351 0.96630305
30.121618 -9.2033253 0.964773
39.19474 -9.4727764 0.9451887
42.897724 -9.108428 0.92457098
14.332004 -8.9757576 0.81557143
14.551459 -8.942915 0.81983149
15.965088 -8.6763992 0.84588408
16.218403 -8.5051336 0.84967256
16.820927 -8.5839806 0.86101818
17.273964 -8.7123327 0.86951363
17.673595 -8.8946571 0.87704247
18.76947 -8.6503963 0.89301455
22.394894 -8.9153242 0.93627429
22.812687 -8.5087776 0.93804383
23.367212 -8.8643522 0.8523944
23.589035 -8.8271313 0.76141512
24.041561 -8.5100956 0.9463836
24.801466 -8.5552988 0.57769924
25.867197 -8.7490177 0.56173849
26.329462 -8.9999981 0.54955697
27.424816 -8.7819595 0.53803968
27.657753 -8.6421242 0.53702384
28.922228 -8.748188 0.96126199
29.097504 -8.8949032 0.96242386
29.993448 -8.5231838 0.95922709
30.153484 -8.8037395 0.9614768
30.674561 -8.5478563 0.95881963
36.670338 -8.6555529 0.94471902
37.412323 -8.8868761 0.94478691
46.280396 -8.9327135 0.90568829
61.489708 -8.6890068 0.81808424
16.348597 -8.4033222 0.85152149
16.514368 -8.4907522 0.85503781
17.276405 -8.1417303 0.51134437
18.359196 -8.350831 0.8463375
18.642118 -8.3902721 0.70257199
22.742573 -8.308732 0.66127348
23.902348 -8.4549713 0.94530165
24.11668 -8.4487839 0.9465276
24.840866 -8.4031696 0.58153427
25.153765 -8.2068529 0.58388132
25.99435 -8.2886553 0.95372081
26.102428 -8.221839 0.6811443
26.88558 -8.3145237 0.5578748
27.466789 -8.0067329 0.95487493
27.587437 -8.0376415 0.95521766
33.598312 -8.352354 0.95110047
36.643887 -8.4863644 0.94279337
37.585606 -8.1337948 0.93482262
43.509537 -8.2622957 0.90972668
45.586243 -8.3958263 0.90127301
11.752263 -7.7036543 0.74887264
12.223133 -7.8239574 0.76089203
21.477383 -7.6429386 0.92280829
21.884102 -7.6012378 0.75235242
22.165377 -7.6014071 0.79899609
22.786152 -7.7713575 0.80412018
23.488905 -7.6211414 0.61182809
23.511932 -7.5894184 0.61266643
24.44227 -7.7518158 0.94485909
24.818674 -7.6095171 0.86122274
25.08869 -7.7456808 0.9475981
25.971842 -7.5784435 0.82869172
26.155514 -7.6576657 0.95033771
27.519358 -7.9425764 0.95448029
34.688377 -7.5989051 0.93925303
36.264732 -7.8066196 0.93595111
39.582405 -7.8512893 0.92256033
44.802086 -7.7970562 0.89635479
45.001328 -7.7290535 0.89429992
11.554209 -7.0978928 0.73856819
22.385914 -7.454833 0.88555151
22.539185 -7.4392176 0.9314909
23.433807 -7.3697991 0.88408476
23.761318 -7.315167 0.74311924
24.171738 -7.3326058 0.75153303
24.605923 -7.4032121 0.8181138
25.8841 -7.3435845 0.7140367
26.094227 -7.2459807 0.84728497
26.543987 -7.386961 0.94939721
27.179066 -7.029479 0.94764751
34.839523 -7.1553054 0.93340045
35.140747 -7.0081568 0.9304378
38.192814 -7.392437 0.92260903
39.389862 -7.0479774 0.91238272
39.715874 -7.3561149 0.91514754
45.419743 -7.3574505 0.88643229
56.027405 -7.4655743 0.82891375
11.597586 -6.6845202 0.73562026
14.39794 -6.5505309 0.79982221
26.323601 -6.7746062 0.94496512
27.093708 -6.82581 0.94610149
27.535034 -6.8573613 0.94650358
33.25227 -6.820178 0.93511683
34.239342 -6.661438 0.92964327
34.937336 -6.7572784 0.92810911
35.146992 -6.8783417 0.92879426
35.631119 -6.7957249 0.92577308
36.851192 -6.7832718 0.92040777
45.460155 -6.7553496 0.87681943
46.049049 -6.5598478 0.87049305
14.332639 -6.33846 0.79669297
45.769623 -6.4074378 0.86958629
46.098793 -6.2909679 0.86588812
12.390529 -5.7445669 0.74564046
12.711498 -5.5654607 0.75169176
14.263507 -5.7960801 0.79067814
14.551514 -5.7604337 0.79696894
33.841957 -5.6479168 0.91846782
7.2267036 -5.1488142 0.60470641
7.7414641 -5.1831446 0.61898434
8.2339697 -5.2140932 0.63254452
8.7311258 -5.2524714 0.64624232
9.2326326 -5.2979217 0.6600517
9.5461941 -5.3288927 0.66866636
10.630353 -5.4068403 0.69772828
11.239943 -5.4362845 0.71363777
11.788572 -5.2405882 0.72536194
12.29596 -5.2804837 0.7385152
12.589317 -5.4022355 0.74706924
14.273425 -5.0947375 0.78477764
14.672348 -5.1537385 0.79462218
33.627682 -5.3063064 0.91491956
35.66515 -5.4781699 0.90803814
36.135078 -5.4067297 0.90479672
13.983191 -4.9355559 0.77641392
14.31556 -4.8216715 0.78328615
14.58782 -4.8038087 0.7895807
60.797096 -4.8399315 0.75365603
12.388393 -4.3735161 0.73088074
12.980161 -4.0533133 0.74234819
33.641323 -4.080759 0.89797848
43.94104 -4.1235394 0.84203249
44.910179 -4.1367707 0.8365857
49.685936 -4.3437886 0.81189167
12.958902 -3.9246378 0.74032944
27.412971 -3.5152574 0.7740764
33.746174 -3.9247174 0.89519382
34.170471 -3.6955168 0.88963437
35.154678 -3.5675724 0.88249683
38.287842 -3.6530974 0.8666113
38.549477 -3.8968778 0.8691293
14.188101 -3.0174103 0.76136929
20.715673 -3.1504469 0.73896748
27.416798 -3.3438215 0.77374858
27.572609 -3.219465 0.78650773
33.942169 -3.4278901 0.88677698
34.000069 -3.3713408 0.88560843
14.170072 -2.8161497 0.75850922
16.188896 -2.8012769 0.69932055
34.351757 -2.3381197 0.8671701
34.658436 -2.219533 0.86342955
14.145494 -1.6422586 0.74256456
14.77004 -1.7102306 0.52112061
14.282688 -1.2301511 0.74031907
14.944441 -1.2427849 0.53179312
13.83053 -0.52449334 0.71666372
14.237119 -0.73846322 0.73147541
14.832852 -0.73094094 0.52401125
12.411883 -0.33226275 0.67341524
12.811951 -0.35203576 0.68505979
13.317154 -0.41008282 0.70030707
13.665727 -0.46145755 0.71098232
14.463599 -0.46802115 0.50010943
14.565933 -0.48623732 0.50652272
59.075974 3.241785 0.60026234
15.362556 3.5755022 0.67027938
32.328724 4.355217 0.73972243
34.865044 4.4685597 0.72204912
35.602703 4.4970965 0.71696758
14.16222 4.9661927 0.7187975
19.92037 4.6515965 0.74368191
20.077038 4.6646075 0.77267849
30.946659 4.949296 0.73174101
31.267006 4.839345 0.73297763
31.931061 4.701714 0.7329812
32.44545 4.636692 0.73178697
32.923439 4.8402386 0.72378361
34.719879 4.844337 0.7134012
35.208694 4.7286263 0.71348596
54.679264 4.7966981 0.59275258
7.4456339 5.2017779 0.89493287
7.5630198 5.3473725 0.89189088
14.2796 5.1059031 0.72930992
30.896378 5.2460966 0.72387427
31.096968 5.2022715 0.72403795
32.870953 5.120007 0.71672583
45.573235 5.4092288 0.63456637
54.515335 5.1405034 0.58582669
55.419029 5.1196141 0.58069551
64.687225 5.0513906 0.52442896
0.83853912 5.7894068 0.92324477
6.2843823 5.9764633 0.88882923
6.5352917 5.9801717 0.88739049
7.5100431 5.5134263 0.88949442
30.875336 5.5424743 0.71576619
31.198904 5.8482704 0.70557618
41.7304 5.871367 0.64636827
42.023651 5.7803521 0.64689171
43.777359 5.9789681 0.6315127
44.223942 5.7744765 0.63385868
45.340931 5.5905805 0.63159627
54.350594 5.9464693 0.5679698
54.816589 5.6944599 0.5710246
-7.1032462 6.2228231 0.96309966
6.7337213 6.2165346 0.88259828
18.688702 6.3254943 0.84696192
21.496267 6.430727 0.87044662
21.629057 6.3615603 0.87253958
30.833292 6.4352884 0.69042879
31.231422 6.0113282 0.70080674
31.808865 6.3384933 0.68874228
43.774857 6.0616541 0.62948209
54.771759 6.3659387 0.55543137
55.459396 6.2208047 0.55465549
-13.991472 6.5510144 0.99903071
-8.2971802 6.8451781 0.95900184
6.7709379 6.7289877 0.87453771
18.305984 6.7284932 0.84333199
18.556877 6.673893 0.84457886
21.313648 6.8000073 0.82033151
21.661064 6.7855263 0.72709513
22.038517 6.674468 0.87709951
30.462194 6.6375766 0.68607831
30.715759 6.58462 0.68657237
31.885193 6.8639474 0.67326862
32.075226 6.863245 0.67243266
55.46209 6.5909038 0.54583764
55.847542 6.8988953 0.53610992
56.174957 6.8244224 0.53589404
-8.2642727 7.2599702 0.95137185
6.7951617 7.2284632 0.86701417
17.910362 7.0466337 0.84020454
18.007042 7.0020151 0.84076387
18.573385 7.0313807 0.84279943
20.988394 7.1006641 0.86159348
21.242977 7.2110877 0.778687
21.797941 7.0170765 0.67259711
31.139191 7.2267952 0.66575032
32.899414 7.1140809 0.66141725
33.644409 7.3063502 0.6524294
6.817349 7.7437286 0.8595317
21.400673 7.562005 0.64798605
30.854137 7.6605592 0.65371877
31.395023 7.7169623 0.6499902
-8.2816334 8.2757473 0.9336679
6.8383431 8.2417116 0.85254616
20.273624 8.4881592 0.84877598
-8.3019695 8.7659779 0.92539948
6.8557291 8.598093 0.84767509
19.818838 8.7804976 0.84345794
20.395082 8.6616983 0.81633317
20.574427 8.7822886 0.8129946
22.384197 8.5856743 0.61695731
30.838375 8.7225389 0.62071854
31.743999 8.8692856 0.61331916
32.193008 8.8260059 0.61317289
-8.3165026 9.2582569 0.91718698
19.894241 9.0432415 0.57311893
20.371033 9.3309565 0.64631879
20.767694 9.1696892 0.68087596
22.406887 9.0298405 0.60008347
30.722723 9.1788311 0.60648423
31.199736 9.3641977 0.59931344
31.79211 9.0369625 0.60793614
32.144085 9.0523491 0.6063273
-8.3325844 9.531004 0.91273534
6.8900909 9.7584085 0.83271945
22.476034 9.9322262 0.86995631
30.468948 9.6099758 0.59312737
30.746485 9.6110592 0.59247988
6.9023552 10.220594 0.82707757
22.440088 10.123792 0.62013543
22.773384 10.122503 0.56091809
23.243626 10.088363 0.56551546
23.712175 10.06085 0.56944525
24.254944 10.329427 0.56220877
24.741602 10.322975 0.56468403
25.256535 10.298555 0.56756264
25.751574 10.267288 0.57024819
26.164072 10.305861 0.56988007
27.360382 10.497272 0.56494516
27.767328 10.485922 0.56566942
28.251209 10.453706 0.56697518
28.616486 10.442715 0.56735337
30.948687 10.310739 0.56920767
31.081316 10.281135 0.56991804
37.073662 10.314105 0.54945934
6.8628078 10.550918 0.82330865
22.784081 10.723035 0.87117851
23.246418 10.697252 0.87823284
23.74367 10.668871 0.8862533
24.292936 10.89903 0.89431739
24.756937 10.921955 0.90227294
25.243139 10.908242 0.91112763
25.717186 10.879912 0.92017049
26.456425 10.511638 0.56305462
26.736103 10.530268 0.5628981
27.17495 10.510121 0.56426919
27.508448 10.501754 0.564928
28.949432 10.67332 0.55931491
29.249537 10.714376 0.55777395
29.748304 10.69918 0.5579381
30.269051 10.680614 0.5580036
30.764135 10.639497 0.55866677
31.061165 10.591782 0.55974734
36.820442 10.611341 0.5416097
37.825981 11.27281 0.5177604
20.975868 11.935268 0.84303403
21.030107 11.925626 0.8436861
39.04097 11.565506 0.50412118
7.8701029 12.443209 0.80001509
8.2961216 12.463274 0.79893959
7.9307928 12.625874 0.79808104
8.3838778 12.696594 0.79653239
8.4125605 13.031216 0.79332066
8.5532866 13.144198 0.79205507
1.7117481 14.06725 0.80001891
28.892372 14.995745 0.95769972
30.848946 14.923407 0.99882174
12.758536 15.491164 0.77579141
13.223319 15.47229 0.77712786
14.889961 15.387831 0.78347063
15.4031 15.372982 0.78587127
15.74545 15.357418 0.78765011
16.215582 15.333333 0.79029089
18.234234 15.217153 0.80436039
18.657259 15.205981 0.80783474
19.246737 15.193555 0.81304151
19.71051 15.169476 0.81747532
20.668715 15.125125 0.82749599
21.910217 15.073662 0.84216529
28.913389 15.141083 0.95721734
29.099478 15.070327 0.96138847
30.903683 15.30156 0.99729055
1.6620579 15.77478 0.78105384
2.1253223 15.974448 0.77765048
5.9863605 15.795515 0.77146357
6.2425776 15.796396 0.77111292
6.7092924 15.773649 0.7707569
7.219409 15.749426 0.77046013
7.7548137 15.725296 0.77025813
8.273366 15.701306 0.77018642
8.7968054 15.645973 0.77049369
9.2485905 15.65595 0.77040851
9.7530975 15.632154 0.77072346
10.285171 15.603878 0.77122635
10.751529 15.583959 0.77177042
11.244643 15.561196 0.77250683
11.751556 15.538183 0.77342546
12.247045 15.519406 0.7744711
12.523192 15.509403 0.77512127
30.939421 15.71674 0.99512696
1.3664761 16.025778 0.77917397
1.7308998 16.120905 0.77716047
2.126035 16.294231 0.77430314
30.969635 16.248701 0.99209434
2.2700844 16.60392 0.77076519
2.5805435 16.669153 0.76937962
30.996952 16.68437 0.98971546
31.021709 16.897854 0.98880327
-6.2626743 19.49165 0.76419836
31.10899 19.250759 0.97558045
-6.2522602 19.752987 0.76115441
31.126902 19.731333 0.97301471
-6.2305827 20.225512 0.75570607
31.145817 20.296339 0.97000897
-6.2079048 20.774403 0.74948865
-6.1940994 21.194427 0.74481297
24.409996 -40.517788 1.078403
24.700171 -40.548336 1.0813073
24.9011 -39.589275 1.0794909
25.459179 -39.409794 1.0839857
47.883343 -35.272072 1.1675211
47.874641 -34.874138 1.1646357
42.618362 -30.049393 1.125443
41.433754 -27.046303 1.1031325
42.758247 -27.174536 1.105006
41.48101 -26.903252 1.1021531
49.33025 -26.85347 1.0996352
35.080112 -26.121994 1.0847666
44.191505 -22.40214 1.0660965
44.594353 -21.983242 1.0618854
39.180382 -18.1493 1.0339756
35.683945 -17.531435 1.0298619
38.947132 -17.569405 1.0292059
39.276455 -17.716316 1.0301676
39.604477 -17.858053 1.0310746
35.68544 -17.397985 1.0288564
38.239723 -17.145535 1.0261734
39.751842 -17.48213 1.027585
40.181435 -17.311697 1.0254816
35.881775 -16.855255 1.0247277
36.058346 -16.809458 1.0243707
40.145973 -16.763805 1.0204883
40.291382 -16.404392 1.0168741
40.565052 -16.279863 1.015197
40.782661 -15.918559 1.0112646
16.236414 -15.009021 1.4763598
16.992393 -15.407084 1.4967024
39.817112 -15.226821 1.0064338
40.117664 -15.054112 1.0041189
16.066124 -14.955804 1.4732616
40.361408 -14.970351 1.0027484
14.488955 -14.141669 1.4340858
14.58918 -14.124223 1.4338886
12.751652 -13.875731 1.4177897
14.857207 -13.69338 1.4189835
10.941598 -12.803022 1.3753569
11.534218 -12.72535 1.3733585
13.301598 -12.665721 1.3750185
15.249779 -12.847007 1.3890877
16.923262 -12.770783 1.3955288
17.311131 -12.588711 1.3911593
10.990997 -12.421911 1.3618672
12.101802 -12.175233 1.3545192
13.353511 -12.170598 1.357049
15.538499 -12.319273 1.3706594
16.105442 -12.182617 1.3683949
19.26092 -12.073316 1.3868001
10.900916 -11.533193 1.330443
11.1521 -11.568546 1.3318281
11.949867 -11.6 1.3337022
12.046985 -11.686096 1.3369058
12.979698 -11.645047 1.3370363
13.150249 -11.823688 1.3438996
18.236336 -11.668399 1.3626215
19.41291 -11.549667 1.3679657
19.61581 -11.573126 1.3707683
10.927144 -11.358658 1.3243352
11.066044 -11.450731 1.3276309
14.343849 -11.304841 1.3281798
14.76027 -11.236061 1.3270365
15.241561 -11.295116 1.3310592
15.570145 -11.324631 1.3335377
17.877485 -11.377459 1.3488061
19.326899 -11.15321 1.3518729
26.047718 -11.083357 1.4404225
13.41186 -10.599635 1.3001122
19.774771 -10.813169 1.342901
24.48008 -10.51824 1.3923857
26.168463 -10.716481 1.4289089
28.436684 -10.630034 1.4695964
26.298203 -10.444372 1.421149
26.66663 -10.373928 1.4254045
27.978489 -10.169095 1.4436224
28.815779 -10.479113 1.4720063
20.010736 -9.697587 1.3020358
21.401419 -9.6980963 1.3171885
21.511337 -9.6202106 1.3154998
24.430738 -9.8588181 1.3665533
24.539345 -9.7281523 1.3633957
26.315842 -9.7135477 1.3944074
26.774632 -9.6172829 1.399624
12.152023 -9.2485657 1.2509654
17.184166 -9.0935307 1.2575824
17.625942 -9.2560129 1.2662346
19.424015 -9.1688509 1.2761633
19.51552 -9.3338346 1.2833375
21.534428 -9.3685675 1.3060414
22.757133 -9.1032019 1.3119698
23.006416 -9.1119003 1.3158977
26.377037 -9.4507246 1.3858573
26.683514 -9.1077785 1.3792062
27.250488 -9.1455297 1.3918551
16.947412 -8.967247 1.2515906
17.377867 -8.9613705 1.2536303
17.628571 -8.9791307 1.2557532
18.436636 -8.6144924 1.2470669
18.795578 -8.8004408 1.2568275
19.164518 -8.810318 1.2601482
21.951031 -8.8575373 1.2915225
22.156765 -8.7052679 1.2883691
22.580233 -8.9345417 1.3029795
23.546753 -8.6090698 1.3048344
25.105675 -8.9371109 1.3433506
26.238171 -8.5277081 1.3493023
26.811817 -8.6536331 1.3651959
27.976051 -8.5403223 1.385217
28.248577 -8.6990881 1.3966706
28.838282 -8.749114 1.4112257
29.261681 -8.6953707 1.4187386
29.703526 -8.605113 1.4255642
18.197552 -8.3389444 1.2349304
18.769728 -8.0211239 1.226742
21.285641 -8.1583424 1.2561926
21.507969 -8.4070606 1.2685058
22.245861 -8.2964573 1.2737938
22.7463 -8.1734848 1.2760758
23.609886 -8.498744 1.3016202
25.909302 -8.1642275 1.3295707
28.839939 -8.2934418 1.3953683
29.156521 -8.394762 1.4059637
29.800459 -8.329546 1.4183549
30.181189 -8.2130814 1.4232013
33.36031 -8.1598969 1.4984748
14.317762 -7.5791173 1.1933613
14.535354 -7.6721683 1.1968737
18.399792 -7.6044807 1.2082621
18.608393 -7.7136893 1.2138507
20.960423 -7.8637905 1.2410078
21.131598 -7.6870289 1.2361268
21.629686 -7.5468764 1.2367518
22.218523 -7.9915428 1.2616491
22.751963 -7.7055159 1.2581919
23.097239 -7.6416578 1.2609314
27.839142 -7.9036202 1.3597651
28.320004 -7.9189467 1.3708067
30.417442 -7.9510632 1.4199136
30.625864 -7.8564329 1.4216981
33.382393 -7.9369564 1.4919401
-15.175312 -7.1888552 1.3095889
11.391104 -7.0290747 1.176507
12.328821 -7.0907216 1.1770557
13.717056 -7.1266007 1.1773055
14.244425 -7.0189829 1.1736152
20.982624 -7.0760794 1.2107477
21.026421 -7.0883679 1.2117239
21.650537 -7.4791775 1.2343887
22.808001 -7.3516874 1.2454561
23.298479 -7.3768339 1.2539732
23.739889 -7.1886806 1.2540046
24.137093 -7.1424713 1.2590075
24.583277 -7.1755939 1.2681603
26.397982 -7.2072644 1.3045309
26.638912 -7.0419679 1.3036143
27.409843 -7.1444263 1.3237377
-15.029726 -6.8273468 1.2996125
11.412857 -6.7770863 1.1682135
14.272968 -6.8359222 1.1672297
23.864819 -6.9956102 1.2487882
26.75489 -6.9574161 1.3030499
32.960281 -6.5261145 1.4370614
-15.037374 -6.3688493 1.2881712
11.495944 -6.4241905 1.1565371
11.563365 -6.1024604 1.1459773
14.288796 -6.1298337 1.2009568
14.85277 -6.2827272 1.4890028
15.02727 -6.3934798 1.492313
33.279831 -6.2817373 1.4378642
34.933205 -6.0694857 1.4749728
-15.092871 -5.537622 1.2679216
11.939592 -5.8491187 1.1368899
12.086302 -5.7187014 1.1323363
13.155385 -5.7352643 1.2524377
13.77694 -5.6383758 1.1265025
14.273993 -5.7616596 1.2910647
33.467579 -5.7994957 1.4282031
33.660351 -5.6357751 1.4284168
34.78577 -5.7792678 1.4625329
-15.036156 -5.3320503 1.2625408
-14.990206 -5.1293368 1.2573104
5.3284817 -5.007803 1.1381255
5.7092829 -5.0373621 1.1370605
6.2491493 -5.0764322 1.1355255
6.7643423 -5.1207685 1.134325
7.2444291 -5.1572571 1.1331358
7.7473006 -5.1980124 1.1320345
8.2729673 -5.2381492 1.1308994
8.7695484 -5.2762609 1.1299185
9.2293844 -5.3161578 1.1292343
9.5198832 -5.3343935 1.1286334
11.984622 -5.3621378 1.12117
12.253521 -5.3000188 1.2442677
13.401322 -5.2293444 1.3452791
13.769406 -5.3663235 1.1625504
14.187877 -5.2908611 1.3611768
33.888466 -5.0898533 1.4184468
0.96810913 -4.6483498 1.1516008
1.9112358 -4.7296591 1.1485429
2.2464364 -4.7639351 1.1476287
2.7621663 -4.8025422 1.1458731
3.2534683 -4.8415947 1.1442971
3.7160137 -4.8811383 1.1429234
4.1521072 -4.9201484 1.1417092
4.8053198 -4.9587622 1.1394078
5.0698166 -4.982295 1.1387171
11.987877 -4.619976 1.4727271
12.018293 -4.5310664 1.4672489
12.672153 -4.5332808 1.0929422
13.296123 -4.7497058 1.4390688
13.577442 -4.8531332 1.1855768
14.322581 -4.7433176 1.3473979
33.714321 -4.7262712 1.4032674
34.10458 -4.5486751 1.4087174
-14.885216 -4.2183661 1.2346503
11.955491 -4.4834142 1.4668971
12.193147 -4.4483075 1.3351879
12.670318 -4.265553 1.2148874
13.275247 -4.2051373 1.1886129
13.593349 -4.2996244 1.4059
33.441772 -4.3601766 1.3854197
33.796028 -4.4647403 1.3979789
34.174122 -4.3214831 1.4041868
-14.825472 -3.7632647 1.2234268
13.4841 -3.9546566 1.3909605
13.505539 -3.9960413 1.3924458
32.946266 -3.5609889 1.3494107
-14.767906 -3.2481337 1.2108965
20.71759 -3.1014905 1.2107234
27.459822 -3.3521323 1.1976624
27.601406 -3.2022018 1.3824916
32.944683 -3.4033873 1.3449883
33.256012 -3.2732213 1.3499517
33.906837 -3.1754427 1.3652145
34.337879 -3.1746099 1.3771267
34.69043 -3.2360134 1.3885336
35.193367 -3.4321918 1.4077173
-14.740736 -2.9288983 1.2032409
6.9734592 -2.6490829 1.0655447
7.0103979 -2.6380334 1.0650405
10.064952 -2.7840664 1.3221859
13.987535 -2.7262497 1.0326116
14.136026 -2.8257334 1.1740407
16.214228 -2.8168347 1.2486262
33.862961 -2.5688674 1.3478056
34.190399 -2.6942735 1.3602463
34.742233 -2.53791 1.3715245
-10.540802 -2.2044325 1.1603197
-10.264362 -2.1734068 1.1578863
-0.016013145 -2.1875319 1.0951867
0.032833099 -2.1791003 1.0946786
6.9121866 -2.4598927 1.0609612
33.862602 -2.2992702 1.3407441
34.10083 -2.0881104 1.3419399
-10.208855 -1.6732756 1.1459836
34.334408 -1.8972796 1.343623
34.602226 -1.6884689 1.3458889
-12.335077 -1.0062119 1.1441112
-11.393206 -1.0518216 1.1392326
-10.778416 -1.116654 1.1368454
-10.176909 -1.2873849 1.136958
-21.808386 -0.64715946 1.1956792
-18.082701 -0.88624823 1.1775324
-14.130365 -0.90187132 1.1530384
-13.524015 -0.97693789 1.1509145
-10.580831 -0.28259236 1.1169105
-19.198343 0.30977368 1.158246
-12.545527 0.37021577 1.1149408
-12.489908 0.14461052 1.1195199
-19.196859 0.58960688 1.1521723
-16.40485 0.84613192 1.1290069
-14.227289 0.56469691 1.1213304
-19.696661 1.4293027 1.1373376
-19.313896 1.1555606 1.1407537
20.047018 4.4985914 1.4317677
32.405842 4.4229465 1.1540403
32.779732 4.4551711 1.1639791
34.225513 4.268353 1.2078804
14.169156 4.9739203 1.2624964
19.94314 4.5881987 1.2552434
20.106886 4.5803556 1.2713658
31.702381 4.6640577 1.1304153
32.815102 4.6641159 1.1614661
33.245392 4.6835656 1.1732011
33.705627 4.6026187 1.1874627
34.360237 4.6022782 1.2058647
34.52969 4.5589342 1.2113798
7.450573 5.1384754 1.3828729
7.580585 5.3044825 1.3766629
14.284278 5.1067128 1.2583867
30.259802 5.4581275 1.4364179
30.645559 5.4363337 1.195192
31.191233 5.3584232 1.4071429
32.346161 5.2124987 1.1395323
32.563274 5.4443107 1.1419128
44.845287 5.4863315 1.4864297
45.218304 5.4628615 1.4974384
6.1845846 5.9669032 1.4270631
30.30743 5.767632 1.3377995
30.613089 5.6215801 1.209567
31.184671 5.5623198 1.4124607
32.738384 5.6563206 1.1434748
33.07259 5.8349886 1.1499448
44.225945 5.923336 1.4609678
44.692432 5.7161255 1.4779131
-21.470373 6.4499516 1.047056
-14.015959 6.1819186 1.0061179
-13.89724 6.35116 1.0022005
6.3180852 6.0901756 1.4212172
6.6373582 6.209084 1.408337
18.448774 6.3258986 1.1111593
18.731733 6.3541145 1.1926481
19.03957 6.2818861 1.3988752
20.734343 6.2916284 1.3713622
21.306931 6.4191861 1.2234014
21.634815 6.4073458 1.0950611
29.885319 6.3627229 1.4163207
30.123032 6.2222786 1.3545053
31.240585 6.3355346 1.0927597
31.708355 6.4667282 1.1035426
33.695713 6.2920523 1.1601546
44.216248 6.090899 1.4576981
-26.131876 6.5264764 1.0745058
-25.834944 6.7332087 1.0686687
-21.092926 6.7094936 1.0397592
-20.232908 6.892014 1.0309796
17.944424 6.8477569 1.0581506
18.038866 6.8965755 1.0581295
18.896736 6.7249355 1.2204806
19.095634 6.8671021 1.2908151
20.956024 6.9473877 1.0563533
21.276695 6.7289481 1.2529279
21.778027 6.7133346 1.2726157
22.26725 6.8178697 1.4013926
29.937181 6.5800729 1.4202037
30.219057 6.7517991 1.1766155
31.258968 6.6554666 1.0889194
32.200138 6.9619265 1.109977
32.788063 6.8956003 1.1267002
6.6694765 7.0637174 1.4044287
15.960007 7.4468851 1.3805524
16.239407 7.4052048 1.3666666
16.640011 7.3966532 1.3498864
17.997339 7.0257869 1.0619344
18.014355 7.0411401 1.0621115
18.931658 7.1711488 1.270681
19.063633 7.0679088 1.1232414
19.813591 7.2982416 1.1608531
20.022762 7.1350121 1.2586888
20.933683 7.1553259 1.2506884
21.18379 7.1295543 1.207932
21.991055 7.040791 1.4816253
22.251913 7.1602416 1.3384254
22.684118 7.1528707 1.2764231
29.935524 7.124795 1.1420696
30.133039 7.2546506 1.2302861
30.648945 7.2622018 1.3064435
32.743927 7.1814694 1.1215783
36.337116 7.1538439 1.2197132
5.2561064 7.7594819 1.4561851
6.7207818 7.7406464 1.4019828
15.453754 7.6604881 1.4130895
15.704724 7.8150897 1.2874576
16.111334 7.5480227 1.3788233
16.845175 7.7987232 1.1841056
17.038811 7.9204535 1.0974612
18.904863 7.6432624 1.3007267
20.796173 7.7688828 1.3038228
22.694719 7.5996704 1.1544902
29.914032 7.7092319 1.0408278
30.237759 7.7493606 1.2609009
32.362564 7.6518097 1.1051811
32.904209 7.6776867 1.1192185
33.177662 7.9307408 1.1231679
-24.614965 8.2898664 1.0316281
-23.951498 8.3411598 1.0266156
-22.367201 8.3966761 1.015919
15.749155 8.3396349 1.1590598
16.775442 8.1912432 1.3862444
19.877855 8.4598017 1.0950007
20.347183 8.2374697 1.2677985
20.631868 8.386096 1.1798278
21.484577 8.0779495 1.3343422
30.297359 8.2264471 1.2786474
30.761406 8.1789026 1.2664001
16.222805 8.6322002 1.127367
16.551188 8.5312481 1.4120278
19.903879 8.6662827 1.1014328
20.333534 8.6439791 1.1032798
20.740818 8.5677223 1.1885191
30.27981 8.7983389 1.4570186
30.593786 8.8050919 1.3017173
5.2975879 9.1764345 1.4552037
5.6097488 9.2205553 1.4442011
30.400793 9.3751307 1.4700459
31.121853 9.4134293 1.0527122
6.7766018 9.941596 1.4069302
15.895171 9.8106871 1.1602213
16.143433 9.8555183 1.4972805
20.121151 9.7812996 1.1369323
30.427095 9.8230448 1.3270631
30.662964 9.842494 1.2472605
31.121546 9.7345476 1.0493815
15.640081 10.451139 1.179464
30.481415 10.243997 1.2603079
30.625256 10.284536 1.3795047
14.511257 10.96714 1.2100478
15.719014 10.559953 1.1809609
30.757565 10.621764 1.2645502
31.054255 10.689705 1.0383308
14.606268 11.267045 1.2151988
15.171307 11.184611 1.20419
30.871246 11.075039 1.030385
31.233656 11.164619 1.0381674
31.553467 11.331415 1.0442463
21.586674 11.512671 1.2066921
31.293282 11.572114 1.0358455
14.859729 12.15053 1.2322158
31.076885 13.182692 1.017097
36.797661 13.289529 1.1533375
33.85965 14.488445 1.0700899
34.084656 14.480745 1.0754397
21.993626 14.652886 1.3100864
26.822741 14.860177 1.4336869
27.08984 14.827599 1.4415605
30.904697 14.704726 1.0016141
31.233013 14.612051 1.0094541
31.741673 14.584708 1.020889
32.227409 14.564191 1.0319235
32.747059 14.545937 1.043861
33.275036 14.519689 1.0562128
33.610352 14.506887 1.0641013
38.36639 14.755867 1.1769189
38.769196 14.867043 1.1858151
5.8161731 15.281041 1.4921662
12.999567 15.485358 1.34056
13.297537 15.462179 1.3358388
13.544449 15.46342 1.3325424
19.321478 15.183617 1.2988923
19.67013 15.172585 1.3006197
26.702993 15.167351 1.4380885
5.8290815 15.763364 1.4988353
6.2332788 15.772351 1.488279
6.7385721 15.760916 1.4750111
7.2468977 15.73613 1.4617678
7.7269082 15.719213 1.4496752
8.2474222 15.694928 1.4368187
8.7752371 15.635028 1.4235027
9.0911341 15.65804 1.4168297
9.7345276 15.618529 1.4021339
10.003471 15.631112 1.3967478
10.880774 15.573586 1.3781477
11.219653 15.557511 1.3714801
11.617707 15.541394 1.3639717
25.725683 16.72846 1.4530566
33.437447 -21.082127 1.9492707
32.889088 -19.762556 1.8903117
32.820232 -19.185755 1.8679451
32.962017 -18.890018 1.8600349
40.657337 -17.102945 1.9684224
40.786709 -16.79978 1.9614846
41.019733 -16.797962 1.9670326
42.294804 -16.139423 1.976624
40.342354 -15.760489 1.9165287
40.922562 -15.724639 1.9294741
42.226158 -15.891279 1.9669164
43.036583 -15.990199 1.9901979
40.427048 -15.479597 1.9093864
40.75914 -15.28788 1.9112606
40.718399 -14.9605 1.8996377
13.801208 -13.509303 1.9846015
14.485068 -13.805705 1.9981034
14.79072 -13.736325 1.9906096
15.090398 -13.580346 1.977229
12.189442 -13.237847 1.9880279
13.205818 -13.108738 1.9646349
13.699574 -13.258571 1.9686097
14.850362 -13.186801 1.9516852
11.510861 -12.834824 1.9728062
12.643211 -12.547993 1.9351358
13.281504 -12.726274 1.9377655
15.624256 -12.777346 1.916785
11.848212 -12.116585 1.9201075
12.106076 -12.139511 1.917046
13.206478 -12.234869 1.905807
18.193373 -12.06166 1.8572063
11.965681 -11.74191 1.8936949
12.525094 -11.689154 1.8803768
18.095858 -11.850426 1.8417861
13.140273 -10.909986 1.8188673
13.631297 -10.541461 1.7865205
13.548664 -10.489828 1.7844498
19.644245 -10.068858 1.7160275
24.981852 -10.01408 1.8058345
25.057844 -10.098942 1.8140347
