# .PCD v0.7 - Point Cloud Data file format
VERSION 0.7
FIELDS x y z
SIZE 4 4 4
TYPE F F F
COUNT 1 1 1
WIDTH 1580
HEIGHT 1
VIEWPOINT 0 0 0 1 0 0 0
POINTS 1580
DATA ascii
36.032188 -3.6007519 1.3183222
38.208103 -3.5646 1.2473673
38.684559 -3.9796557 1.3072
14.038784 -3.0180426 1.3204168
20.870115 -3.193074 1.2120972
27.790609 -3.1954334 1.2890882
32.916515 -3.3985596 1.3882482
33.240456 -3.2894402 1.256645
33.747047 -3.2545905 1.2069428
34.276604 -3.2359896 1.2911642
34.760468 -3.2709062 1.1699957
35.190872 -3.4068356 1.1203357
35.664688 -3.192076 1.246601
38.124485 -3.454093 1.2348619
13.953299 -2.7181168 1.3191329
14.06271 -2.8529081 1.3164167
16.095867 -2.8299713 1.2227976
33.499359 -2.646235 1.0075692
33.716911 -2.6739666 1.1453669
34.275024 -2.7270989 1.2443453
34.637512 -2.7980368 1.1809821
35.041824 -2.8004479 1.1521215
35.524849 -2.9359875 1.2103403
36.311459 -2.6823175 1.2342193
36.517269 -2.6701581 1.0661494
48.565239 -2.5940714 1.498912
33.424633 -2.3834245 1.3973025
33.801926 -2.3636899 1.3545849
34.264954 -2.2412703 1.2461467
34.733387 -2.2403121 1.2108172
35.122066 -2.1117885 1.1002457
35.711807 -2.3369992 1.1794153
36.316654 -2.3710666 1.3693451
47.459332 -2.171623 1.4293489
34.329205 -1.9266834 1.3207449
34.670048 -1.7934686 1.255823
35.099819 -1.8247496 1.3881228
-18.199474 -0.85584557 1.0772729
-19.421829 -0.013445258 1.0865371
-19.294804 0.3417055 1.0826662
-12.647789 0.25771415 1.0019367
-19.259239 0.6859014 1.0800266
-16.49979 0.86254328 1.045167
-14.320835 0.55262393 1.0204878
-19.820942 1.3880508 1.0825243
-19.382858 1.1274133 1.0787715
59.044388 3.1727753 1.0787067
19.951302 4.4907532 1.4172246
31.380056 4.4842691 1.27325
32.255394 4.4587445 1.2498614
32.71051 4.4653568 1.2591213
33.263409 4.4543977 1.1997333
33.801357 4.4150357 1.3593851
34.202045 4.3270526 1.3195599
34.53706 4.4929943 1.229923
14.128933 4.9677057 1.2685264
19.951876 4.5932426 1.0021977
20.076359 4.6487246 1.3586923
31.424837 4.7421036 1.3124505
31.765789 4.6665072 1.2575097
32.247578 4.6624942 1.2416831
32.77597 4.7013707 1.2568442
33.252968 4.6846247 1.314606
33.698494 4.6571307 1.2928333
34.25211 4.6908503 1.14053
34.821674 4.7215691 1.3209393
35.288521 4.8438826 1.2425362
35.624767 4.7514844 1.1775632
61.128597 4.870544 1.1183075
14.188694 5.14218 1.2668791
30.328989 5.4298983 1.3054669
30.640089 5.4334216 1.1799374
31.216076 5.2993898 1.2959892
31.563816 5.3403649 1.3050907
32.147369 5.0934768 1.1550083
32.713749 5.355721 1.1503329
33.078945 5.1099095 1.377866
33.870285 5.1134644 1.1460862
34.188229 5.278553 1.0991056
34.765923 5.3129096 1.146953
35.163746 5.2385345 1.1741461
35.702538 5.1890883 1.3585542
44.893814 5.4495373 1.2578459
45.412395 5.2591176 1.2845711
45.579262 5.3540707 1.2946861
46.449085 5.363719 1.3429253
46.541843 5.3027601 1.3475611
29.950829 5.9024868 1.4321394
30.233456 5.6554112 1.2309978
30.753939 5.6601939 1.2475885
31.243185 5.7128901 1.1724243
31.668516 5.8240232 1.0890957
32.9147 5.7919993 1.2613643
34.207607 5.7614202 1.2744167
34.760162 5.8188291 1.4088454
35.084553 5.9517078 1.4570291
35.924519 5.5786877 1.2703352
36.128052 5.8178263 1.0632086
36.974884 5.7857566 1.1201305
37.096638 5.8430862 1.2670668
37.875515 5.736804 1.3405463
38.367699 5.8061585 1.2249566
38.505699 5.7049403 1.2313106
40.755684 5.8522358 1.2687002
41.376026 5.8499999 1.2058551
41.860027 5.8023915 1.098703
43.911449 5.6148067 1.2060356
44.180378 5.7174444 1.2219323
44.723843 5.5761118 1.2498819
45.136002 5.5663047 1.2723694
45.606777 5.5513544 1.2980917
18.429127 6.236958 1.0888522
18.649143 6.3706574 1.0813376
20.773239 6.3282223 1.4054929
21.273426 6.4700174 1.3745711
29.764788 6.2208915 1.3449839
30.128725 6.3835297 1.3111932
30.769543 6.2531023 1.4341398
31.369253 6.4332981 1.3075597
31.752489 6.0874119 1.2146535
32.231045 6.3559127 1.2807809
33.734016 6.265523 1.1696281
34.282097 6.1049514 1.1865413
34.851059 6.1884336 1.4633954
35.29187 6.1885195 1.384183
36.238586 6.2949109 1.2733393
37.279137 6.4588876 1.4666388
37.958782 6.2369704 1.2139543
38.168137 6.2179465 1.2286251
38.757687 6.0258226 1.2646036
39.063953 6.2765789 1.2991438
40.234921 6.2261992 1.297964
40.678326 6.1823463 1.1867926
41.188984 6.1353793 1.2653918
43.412945 6.3190002 1.1888535
43.828449 6.3171873 1.2109455
44.183918 6.1596227 1.2277635
-28.243956 6.7833128 1.1567023
-21.189976 6.7158885 1.0714215
18.816908 6.7233977 1.0796192
19.126621 6.9142036 1.0697782
20.701567 6.6968279 1.4234991
21.339115 6.7100477 1.3789268
21.767487 6.865706 1.3552988
32.157967 6.6653032 1.1702213
34.263786 6.8510466 1.2614032
34.677761 6.8666105 1.2891452
36.908569 6.6932912 1.1642866
37.445778 6.5533934 1.4898281
38.687946 6.6122198 1.2858317
39.154102 6.6719327 1.3236277
39.938637 6.7266397 1.3863031
40.219616 6.7451005 1.4090384
40.837574 6.7727218 1.1422088
-27.99509 7.0564613 1.1524475
18.928247 7.3394918 1.0854769
19.048428 7.1946068 1.0779082
19.710251 7.2375884 1.0515783
21.871916 7.0526552 1.3558226
22.167263 7.1161981 1.3386853
22.665846 7.2472215 1.3116837
29.942493 7.2334232 1.2116182
30.011353 7.0629268 1.190868
32.50581 7.1181607 1.4371647
34.384689 7.1083016 1.2407964
34.561478 7.0798092 1.3031417
39.030525 7.4590211 1.352204
41.046391 7.2548776 1.4951074
45.71928 7.1718383 1.3241947
18.47991 7.8612404 1.1134574
18.575697 7.7257776 1.1070105
22.699844 7.5222607 1.3222487
31.563822 7.9297028 1.2856723
32.303635 7.857749 1.2899904
36.330956 7.6069241 1.4810407
39.055984 7.5275345 1.3574848
20.281088 8.3188505 1.0519038
20.658884 8.2906303 1.1869971
22.987396 8.2740717 1.3418643
23.024527 8.238924 1.3378341
32.326649 8.0109282 1.3081607
19.850666 8.8161707 1.0798697
20.617807 8.9214268 1.0539433
21.21537 8.8470602 1.4797893
43.441261 8.7244473 1.2354405
57.963058 8.6181784 1.0375237
59.614388 8.7763147 1.0736431
20.328123 9.3309441 1.0749443
20.805672 9.1660271 1.0534582
21.358414 9.3534985 1.4960074
20.424839 9.5920515 1.0783105
22.417723 9.9604053 1.2443514
37.201088 9.8510294 1.0003254
44.95599 9.5995512 1.3294499
45.044548 9.860404 1.3395791
65.662292 9.5753059 1.2058542
18.024132 10.157879 1.1805987
22.405174 10.038892 1.4715476
44.997295 10.105602 1.3428164
78.700211 10.10851 1.4948735
22.444386 10.931673 1.0526054
23.369532 10.988625 1.0285059
23.739553 10.974056 1.0182025
24.213295 10.947566 1.0051986
45.920692 10.578304 1.398685
78.590256 10.676016 1.4908038
18.712261 11.225304 1.1827233
20.404427 11.390406 1.1301836
20.578371 11.403968 1.1249886
21.524269 11.412828 1.0957518
22.355213 11.033915 1.0586152
22.753555 11.030073 1.0470084
23.124084 11.008547 1.0358908
36.671638 11.043371 1.4338057
46.738949 11.042484 1.4492426
18.353605 11.55696 1.2043066
20.932043 11.898953 1.12938
21.485195 11.566849 1.1019073
25.457335 11.646076 1.0043025
36.97477 11.98161 1.0761988
20.373026 12.217008 1.1567007
15.624877 12.759059 1.333647
17.365032 13.300865 1.2870693
17.560513 13.342531 1.2816882
16.624823 13.780467 1.3258619
17.29199 13.870453 1.3060685
17.643122 13.884926 1.2949375
26.784323 14.850122 1.1190237
27.048454 14.845891 1.1161039
33.638985 14.516388 1.1138144
38.26598 14.727065 1.2245977
13.276543 15.448655 1.4882905
13.734999 15.436613 1.4718156
14.248642 15.413706 1.4532899
14.626593 15.389856 1.4396087
16.443146 15.383003 1.3790121
16.834005 15.29866 1.3639292
17.084454 15.292809 1.355819
17.648243 15.256318 1.3371172
18.383066 15.167633 1.3119959
23.80854 15.308243 1.1827027
24.061483 15.301314 1.1777457
24.784843 15.264938 1.1638198
27.111631 15.090352 1.1262383
22.949766 18.134008 1.3130395
23.030121 19.957449 1.3872111
23.037561 20.503256 1.4099903
27.149639 21.470875 1.410903
23.965521 22.133379 1.4671955
24.096191 22.10178 1.4643086
26.296261 -59.778587 1.878505
26.628128 -59.614357 1.8758914
39.965446 -41.055111 1.5175755
35.303806 -24.357504 1.9803121
31.157972 -22.772661 1.8486221
31.399204 -22.083385 1.80944
31.809568 -22.407904 1.8309641
32.528622 -22.230221 1.8257899
29.196949 -21.873566 1.7904379
31.085051 -21.502428 1.7736886
32.612564 -21.611347 1.7902057
29.546831 -21.298111 1.7570393
30.699717 -21.288597 1.7594452
31.241411 -21.29138 1.7620842
31.62438 -21.056551 1.750468
32.041416 -21.043392 1.75246
35.084229 -21.256798 1.7974404
32.18605 -20.841839 1.7416916
32.689819 -20.530079 1.7275017
34.295158 -20.690783 1.7540323
34.730659 -20.779182 1.7648535
32.78241 -20.201393 1.7090683
33.344677 -20.321407 1.7215531
30.425278 -19.557735 1.6569083
30.708439 -19.580423 1.6592633
31.384741 -19.502005 1.6578038
31.527391 -19.800062 1.6761229
32.881321 -19.586397 1.6739706
33.325672 -19.710108 1.6856531
33.703362 -19.720758 1.6903977
30.260859 -19.338516 1.6435765
30.766029 -19.409431 1.6494356
31.029705 -19.445381 1.6526618
33.071854 -19.362463 1.6627082
35.472527 -19.129227 1.6803827
35.544006 -19.122169 1.6811306
35.299858 -17.06625 1.5589154
34.476643 -16.826735 1.5321739
34.619488 -16.905691 1.5388594
35.155037 -16.709961 1.536032
13.841869 -13.078228 1.6269991
47.021736 -13.068108 1.7344835
13.02751 -12.667232 1.6407828
47.33255 -12.85031 1.7395546
48.123516 -12.785386 1.773008
12.980475 -12.315542 1.6294304
13.179438 -12.171663 1.6166914
46.96138 -12.256407 1.6989229
49.341274 -12.219328 1.8084747
49.78524 -12.156609 1.8274628
50.302143 -12.12991 1.8514547
11.14044 -11.519629 1.6718633
12.86379 -11.666 1.6101907
13.15317 -11.857531 1.6061544
26.918722 -11.742953 1.6849515
27.301291 -11.767682 1.6787391
49.370075 -11.821165 1.7952379
10.074263 -11.231804 1.7048362
47.93734 -11.203817 1.7039008
49.295563 -11.072552 1.7648144
79.923325 -11.078322 1.6654189
10.064407 -10.944608 1.6960198
13.459211 -10.789093 1.5562935
13.606282 -10.561123 1.5426502
27.21059 -10.631985 1.5792657
44.422516 -10.527158 1.5146396
44.577309 -10.579988 1.5237355
24.317026 -10.115885 1.6308477
24.580217 -10.011719 1.6116531
25.242102 -10.098026 1.5931671
25.8283 -10.489977 1.6058395
26.323792 -10.230978 1.5681033
26.617445 -10.240813 1.5603738
27.114288 -10.286111 1.5509651
48.046413 -10.374826 1.6791134
94.030365 -10.439529 1.9738128
24.317511 -9.7655916 1.6028072
25.444649 -9.8591604 1.5658802
25.695223 -9.8430099 1.6169764
26.255882 -9.6411057 1.5195922
26.854292 -9.7263393 1.5087864
27.373188 -9.8167591 1.5030015
28.269039 -9.5257635 1.8395159
73.381958 -9.6286697 1.5051944
82.877914 -9.8237381 1.7184603
23.814501 -9.146656 1.5769852
24.401976 -9.4779863 1.5763404
24.878693 -9.039135 1.9372032
25.83814 -9.0619888 1.8847387
26.206774 -9.4075441 1.7699189
26.634247 -9.2326117 1.8649623
28.712343 -9.3934364 1.8112642
45.725899 -9.3818436 1.5310042
16.420122 -8.9138203 1.9996505
18.764009 -8.6697483 1.8308386
23.708893 -8.9696398 1.5684793
24.335722 -8.7577066 1.7558002
24.785608 -8.8199778 1.670886
25.209143 -8.8398552 1.8953881
25.679434 -8.694109 1.8518196
26.291239 -8.7995224 1.8310373
27.476624 -8.7258024 1.7684382
27.655468 -8.5074301 1.7350953
74.635582 -8.5953608 1.5224632
18.437424 -8.3354244 1.8325032
18.564714 -8.4118166 1.828564
21.115009 -8.1217031 1.6502953
24.391701 -8.3253279 1.8921498
25.697926 -8.2055025 1.7961906
26.002415 -8.2388945 1.7822943
26.892603 -8.4132357 1.7565005
27.316347 -8.151268 1.7063318
27.599886 -8.2111616 1.7015409
28.244013 -8.2803507 1.7168175
28.584026 -8.0510874 1.7298145
29.287817 -8.0429325 1.6282296
29.773094 -8.0976162 1.7147274
30.185061 -8.2260981 1.6379985
30.78347 -8.1482105 1.8284645
74.671768 -8.3613787 1.5209382
21.907106 -7.5618219 1.5666063
22.245367 -7.6229129 1.9876699
24.664051 -7.7430692 1.8126477
27.266832 -7.641356 1.9833573
27.716049 -7.7932615 1.9148033
28.086563 -7.8202672 1.7278057
28.821104 -7.9088702 1.75318
29.218861 -7.8460202 1.8548394
29.648808 -7.7401896 1.8951231
30.317511 -7.7261076 1.8223083
30.659828 -7.7408705 1.6682442
21.31196 -7.1715851 1.5784515
21.716906 -7.3162746 1.6603075
22.077692 -7.3973851 1.9817209
23.444277 -7.1059861 1.8411899
23.679016 -7.2598543 1.8371757
26.239817 -7.0978365 1.9766316
26.552464 -7.3761487 1.9923899
27.349068 -7.4669747 1.951912
29.378019 -7.2656617 1.8257214
29.589319 -7.2039533 1.809751
30.224342 -7.4249268 1.832761
33.399559 -7.3541274 1.871593
34.687595 -7.0207262 1.5861535
44.845894 -7.0205293 1.9576275
47.267426 -7.1981168 1.5356009
14.992873 -6.6899729 1.9923425
15.04977 -6.6615973 1.9868833
23.372236 -6.9330688 1.8308711
23.925114 -6.8809948 1.7814339
25.995743 -6.9933558 1.9817572
26.078516 -6.9857574 1.9739027
30.193325 -6.5809927 1.966727
30.510508 -6.5560751 1.9560158
34.113197 -6.5020022 1.7761054
34.6684 -6.865665 1.5666761
44.368183 -6.5909338 1.8974354
45.267395 -6.5012598 1.9668529
48.770569 -6.6264362 1.5986922
79.87207 -6.5113034 1.6200571
14.812258 -6.2923255 1.9889878
32.74025 -6.0391021 1.6327366
42.410637 -6.4666586 1.7345078
43.581413 -6.4021673 1.8242416
44.327946 -6.3569217 1.8826524
44.649284 -6.3275652 1.9076219
45.190285 -6.3085532 1.9514686
47.282513 -6.2528777 1.5092953
78.485382 -6.1322184 1.5855064
32.785358 -5.8449841 1.6034894
33.314968 -5.5804944 1.5861731
33.62748 -5.6122899 1.6088167
42.450905 -5.9453158 1.7100022
42.626671 -5.9456267 1.7241126
50.730526 -5.90521 1.6866091
51.434387 -5.5265174 1.7166593
51.55769 -5.6684976 1.7266393
75.933098 -5.5945916 1.523344
77.890633 -5.5456629 1.5669854
82.490463 -5.8141503 1.6729233
47.669785 -5.421134 1.5081182
49.928986 -5.4089837 1.6311178
50.976143 -5.1170907 1.6823837
51.335693 -5.1887245 1.7038682
75.899979 -5.4307604 1.5211644
76.053894 -5.1337657 1.522058
33.971825 -4.6367006 1.7052094
35.897121 -4.7209783 1.9352374
40.152321 -4.5495744 1.8220942
51.347038 -4.962429 1.6996796
52.323883 -4.7394724 1.749598
76.479553 -4.8696604 1.5293951
76.665749 -4.6517587 1.531757
33.328377 -4.2970567 1.9078109
33.642632 -4.1993113 1.8476491
34.243252 -4.0979085 1.8488412
34.680798 -4.1393232 1.6919749
38.635006 -4.0231156 1.934659
40.189266 -4.4458814 1.8189548
40.73259 -4.2428126 1.8664315
44.047207 -4.164115 1.7631546
49.887131 -4.4038239 1.6068949
52.742119 -4.176074 1.7623234
92.09642 -4.284184 1.8774292
32.688206 -3.5548151 1.6575009
33.435265 -3.8622246 1.7862343
33.778046 -3.8310282 1.7325696
34.183746 -3.6947217 1.6134303
34.562584 -3.9765067 1.6511028
37.951263 -3.5208087 1.650512
38.759502 -3.8828561 1.6220489
39.075817 -3.730814 1.9698559
49.998241 -3.6667857 1.5986588
93.158752 -3.9499578 1.8988926
14.012012 -3.0131392 1.9412847
20.900478 -3.1510806 1.795741
27.86623 -3.1142993 1.7273825
28.006395 -3.2194993 1.869606
32.802273 -3.4383409 1.5548882
33.088837 -3.1094017 1.5089471
34.464539 -3.439204 1.9477
34.581528 -3.0756497 1.8402762
37.960201 -3.476191 1.5055501
38.077419 -3.2976303 1.5999185
50.208088 -3.4425819 1.6063719
50.555763 -3.3827891 1.6249104
92.632675 -3.3596818 1.8825223
93.188194 -3.0830584 1.8930426
6.8547921 -2.6573873 1.6476018
9.9528713 -2.7849717 1.5052769
13.912928 -2.7156019 1.9418612
14.043628 -2.8485937 1.9346204
16.136501 -2.8690715 1.7677515
20.797314 -2.9829936 1.798615
33.388813 -2.6299751 1.5949802
33.809963 -2.5913837 1.5432972
34.398815 -2.5563507 1.60958
34.644176 -2.9228146 1.8049713
36.698303 -2.7669477 1.5505784
47.225754 -2.5602229 1.9961716
53.191864 -2.6140761 1.7621891
-0.11462021 -2.228415 1.9683611
6.7336349 -2.4567084 1.6505232
33.393841 -2.3823256 1.5380683
33.673824 -2.2788293 1.5598789
34.185421 -2.2642684 1.6269785
34.765469 -2.1132145 1.6094767
35.650379 -2.165751 1.6417967
36.37685 -2.3773932 1.688956
36.61639 -2.337513 1.7578671
47.254494 -2.4190531 1.9953477
53.175308 -2.3449075 1.7574286
34.188717 -1.9603142 1.5887938
34.921413 -1.7499031 1.6408662
35.119747 -1.6882559 1.6085159
35.679974 -1.5330179 1.8513585
36.069885 -1.6372055 1.8081254
42.676399 -1.6480843 1.9739617
34.99295 -1.4212033 1.672228
35.125259 -1.4436253 1.6789802
51.831009 -1.0219707 1.6638486
51.866814 -0.91270876 1.66471
87.362892 2.6903987 1.7229431
86.961037 3.4466519 1.7096
87.09404 3.2916961 1.7134675
20.067898 4.4363775 1.820895
32.942318 4.4786921 1.5141904
33.348389 4.3872023 1.5466522
33.724758 4.3764172 1.6012899
34.232983 4.3721232 1.559389
34.661419 4.4442391 1.7797592
35.201096 4.4362926 1.8849437
84.325439 4.4399276 1.644629
85.509995 4.4054852 1.6716299
14.143334 4.9720898 1.8846638
20.10635 4.5959692 1.8216779
31.411055 4.9201341 1.5213609
31.687143 4.8817816 1.5189788
32.319565 4.7759929 1.5264806
32.755386 4.7324266 1.5550683
33.235786 4.6969066 1.5857925
33.784115 4.6809344 1.6456963
34.291546 4.6234202 1.7224748
34.694897 4.6536236 1.6985426
35.273438 4.771174 1.7567805
35.8298 4.9052238 1.7418414
84.3629 4.6131649 1.6445974
7.4915762 5.2630491 1.575531
7.5388155 5.2563725 1.5733075
14.22657 5.1397052 1.8804723
30.975782 5.4735804 1.664867
31.184404 5.316587 1.6232383
31.735916 5.0530477 1.5650164
33.058105 5.0248151 1.6573436
33.67028 5.1994352 1.6861539
34.142067 5.2626448 1.8566704
35.323997 5.1652246 1.6502775
35.751137 5.1904659 1.7919254
36.145893 5.4544935 1.5198268
44.822819 5.4270177 1.756074
45.062466 5.4005527 1.7766674
53.702721 5.3576813 1.7503207
54.664955 5.1247582 1.8040731
55.348656 5.251338 1.8433301
56.12925 5.086638 1.8872261
0.80645752 5.6815915 1.8869203
30.300266 5.8280644 1.6461031
30.764793 5.736105 1.6427165
31.089111 5.5739837 1.5508604
33.834476 5.9231849 1.7521498
35.954868 5.8009801 1.5337561
36.059914 5.8873982 1.5551422
36.893185 5.7498302 1.9096519
37.286034 5.8205667 1.9345996
37.921181 5.8128777 1.7798157
38.186691 5.6357589 1.8003348
38.712296 5.8796282 1.6529398
40.652325 5.9793196 1.7919621
41.231548 5.8722701 1.852698
41.91391 5.9099646 1.6839918
44.17234 5.8482847 1.7089593
44.662506 5.713748 1.7484887
45.068054 5.7251973 1.7842448
46.268097 5.6545191 1.8886211
47.032848 5.7438688 1.9582531
53.484413 5.5144935 1.7386169
53.564533 5.6941986 1.7439779
54.100433 5.9730353 1.7755921
80.46656 5.8153067 1.5506892
80.559509 5.5639486 1.5539408
6.3702378 6.3222179 1.63158
18.888206 6.3048315 1.5435625
20.216568 6.4612012 1.8864034
20.786737 6.4914055 1.8288659
22.034615 6.4579439 1.7005614
29.818737 6.3112774 1.9251983
30.247524 6.1451073 1.8020627
30.606934 6.1010103 1.7371598
31.021202 6.0154691 1.615391
32.509964 6.4313869 1.5402696
35.498829 6.3036175 1.5411479
35.545322 6.0247102 1.5134194
37.251614 6.0839329 1.7185564
37.719456 6.193676 1.7437638
38.343475 6.4069834 1.6975358
38.767719 6.2538409 1.6748445
39.902695 6.2748752 1.7248859
40.094902 6.2316375 1.7435551
40.627872 6.1716924 1.7995052
41.17577 6.1061883 1.8579654
41.944336 6.080287 1.7341667
42.296604 6.0345054 1.6934643
42.714748 6.0302877 1.5885227
43.913673 6.3059521 1.6988668
44.237938 6.2404943 1.7248977
44.622398 6.2590761 1.7585158
54.488136 6.3200355 1.7993045
55.390312 6.4428997 1.8507698
55.887238 6.1964622 1.8775244
80.167725 6.3030224 1.5417706
80.787003 6.1008477 1.556644
6.424726 6.5832686 1.6304346
16.345848 6.9362602 1.7525744
16.63431 6.9370494 1.7307764
18.810474 6.788259 1.5639267
19.047775 6.777029 1.5460498
19.978416 6.5496268 1.9155593
20.390789 6.5577154 1.8731188
20.797665 6.603878 1.8336195
21.161098 6.6323934 1.7981625
21.758518 6.648603 1.739236
22.148565 6.7845078 1.7087333
29.741295 6.975018 1.8649769
30.378363 6.6387491 1.7657001
30.809744 6.6909161 1.5559916
31.021042 6.9025278 1.5944066
37.876129 6.8312488 1.764623
38.394981 6.813386 1.6019882
38.6819 6.7729411 1.6279945
39.943329 6.5779929 1.747447
40.061089 6.5460491 1.7582566
41.283302 6.5723648 1.894639
44.681484 6.5546041 1.7716107
54.192074 6.7556968 1.7853905
55.482956 6.6427879 1.8571162
56.337448 6.5648737 1.9047785
6.4818764 7.3910408 1.6328818
6.5106964 7.3834133 1.63151
16.797714 7.0887356 1.7226882
17.156538 7.2723923 1.7011842
19.474682 7.374517 1.5353758
21.825542 7.4249229 1.7795591
22.014336 7.4138422 1.7608719
22.577507 7.2668967 1.6982437
23.41807 7.4179597 1.631927
29.696686 7.0624833 1.8862402
30.837017 7.1764159 1.6466794
38.122986 7.1747456 1.9342307
38.561764 7.0609541 1.6365261
40.939529 7.2811341 1.8978965
41.141941 7.3163157 1.9218893
41.666809 7.1577268 1.5404472
53.560669 7.0023127 1.7518606
54.38192 7.3585243 1.8003907
54.941433 7.2975845 1.8311224
55.189751 7.234972 1.8445368
80.283348 7.1709156 1.5407279
6.5196218 7.7518129 1.6338482
16.259602 7.5870104 1.7773213
19.191727 7.6937304 1.5671041
21.780273 7.5301433 1.7906053
22.742624 7.6615067 1.7100459
23.377626 7.6403265 1.6518173
32.62014 7.8150296 1.5450826
36.237846 7.7003832 1.7832541
36.514469 7.9518738 1.8411591
37.59531 7.7251673 1.5978098
41.680717 7.5653124 1.5578318
79.142166 7.6158834 1.5132596
6.5342689 8.2610884 1.63739
22.711447 8.3664675 1.7638117
30.735973 8.2953129 1.5897894
31.28994 8.0941315 1.5593747
43.446365 8.3492956 1.7294784
43.558121 8.2416325 1.7342253
6.5287242 8.7311211 1.6419277
22.661707 8.5153046 1.7792733
40.108257 8.9132919 1.9257121
20.444239 9.3954935 1.5549409
20.860359 9.1885242 1.5186713
21.087463 9.1208315 1.5011084
32.837196 9.2268915 1.763247
44.455189 9.028698 1.8368161
79.119446 9.3172445 1.5067122
39.804386 9.7372646 1.9625788
45.134491 9.7154427 1.91833
21.710646 10.297535 1.9978361
22.286514 10.428861 1.9622397
31.581858 10.380357 1.5709124
21.225195 10.979097 1.5903876
21.666706 10.943881 1.5638051
22.349937 10.79213 1.9096524
22.503361 10.808513 1.9775629
20.669157 11.1044 1.6289959
21.2612 11.202061 1.6009706
21.642418 11.354621 1.5888146
22.466351 11.204888 1.536536
41.168499 11.441484 1.7145369
18.388443 11.652844 1.7940218
20.948696 11.887482 1.6572344
21.47374 11.508647 1.6068377
21.755367 11.70757 1.6036171
22.071081 11.812206 1.593526
31.697296 11.519001 1.7045176
17.657578 12.466764 1.8798311
17.950323 12.870078 1.8828368
18.091198 12.742844 1.8678119
17.970388 13.10225 1.8938599
22.599907 13.195072 1.6553831
17.492153 13.721273 1.9549329
17.633013 13.64784 1.9427662
22.608534 13.626288 1.6833122
17.878374 14.027704 1.9491868
21.297411 14.663506 1.80998
21.889181 14.660254 1.7832267
22.656662 14.818097 1.7613184
26.818266 14.836967 1.6317272
27.078793 14.84485 1.6269815
32.964096 14.935596 1.6209519
18.637499 15.187199 1.9739062
19.434984 15.154678 1.9308054
19.730652 15.146122 1.9154955
20.233427 15.122005 1.8893667
20.679525 15.098619 1.8666445
21.944389 15.016752 1.80446
22.254316 15.023749 1.7918661
22.834715 15.07401 1.7717977
23.03348 15.305516 1.780098
24.78858 15.242446 1.7151743
27.164978 15.104382 1.6454557
12.56172 15.500493 1.5152133
22.914902 15.755169 1.8159914
23.756557 15.601914 1.7748677
24.226507 15.680988 1.7649151
24.894083 15.639614 1.7412958
25.113663 15.695246 1.7391188
22.907423 16.266537 1.8522289
22.930523 16.676435 1.8804195
24.115494 27.601652 1.7055767
24.754387 27.618879 1.7014273
25.290232 27.618942 1.6978594
11.924864 -27.701225 2.3476713
12.267437 -27.407055 2.3247945
34.420826 -26.800106 2.1116273
34.801872 -26.713476 2.1109812
35.845322 -24.852821 2.0166092
36.317547 -24.890102 2.0258009
57.027386 -20.51536 2.4860976
32.832981 -20.301319 2.4608736
33.272301 -20.033085 2.4413509
33.69865 -20.224335 2.4654076
34.125832 -20.357443 2.4846876
33.187588 -19.909986 2.428746
31.368887 -18.641386 2.2922726
31.716627 -18.557615 2.2867401
32.219448 -18.651264 2.2997429
31.906059 -18.499165 2.2826812
32.040489 -18.390484 2.2736366
35.332611 -17.705849 2.2640529
12.338472 -11.786158 2.4328544
11.901459 -11.226132 2.4325147
22.756437 -11.028355 2.2871661
12.043253 -10.767942 2.3988028
27.897324 -10.983508 2.0314906
12.096803 -10.243059 2.3683248
13.848248 -10.390881 2.2545245
23.808048 -10.359466 2.1475744
15.967709 -9.591651 2.0674942
16.214613 -9.6944485 2.0568213
24.142971 -9.6187115 2.0461977
25.545338 -9.9733219 2.0045669
97.332405 -9.6223259 2.0403883
15.838553 -9.3708267 2.0639794
16.011108 -9.4064121 2.0542972
23.763746 -9.2387123 2.0306165
24.210806 -9.2071819 2.244242
25.701538 -9.3987656 2.34638
28.640451 -9.1326542 2.1488729
46.195572 -9.181098 2.1788917
97.11792 -9.3644495 2.0332494
14.268606 -8.5904627 2.1326282
16.312674 -8.9100161 2.0067351
17.421772 -8.5130939 2.4999108
17.795305 -8.8191385 2.4877789
24.635406 -8.8785257 2.354645
26.386457 -8.5205154 2.1706903
28.3081 -8.5907936 2.164047
28.6516 -8.8814659 2.1083999
45.155762 -8.5861568 2.0651302
14.252917 -8.1769104 2.1138616
17.429796 -8.3686762 2.4883204
24.805735 -8.108263 2.2351606
25.826853 -8.2705011 2.1745389
26.223663 -8.2597885 2.2178466
26.604712 -8.1399202 2.4653354
27.353935 -8.3463135 2.267272
27.755157 -8.2263927 2.1981168
28.211924 -8.2574902 2.2073336
28.705479 -8.2762661 2.3523765
46.03688 -8.1985664 2.1136684
14.159281 -7.7004857 2.098501
20.959702 -7.5084443 2.0896747
21.235758 -7.5735598 2.0705638
21.767267 -7.7169857 2.1874111
22.176119 -7.7675977 2.006707
24.642977 -7.9454141 2.2276866
25.559708 -7.5728889 2.4647086
26.786333 -7.6533976 2.2096865
27.337042 -7.8423929 2.0091178
27.68932 -7.6680312 2.2616191
28.299652 -7.7532039 2.2733154
28.698771 -7.7391071 2.2488527
29.133535 -7.5520816 2.1925781
29.672398 -7.5867372 2.1798377
30.881342 -7.5802646 2.1582556
31.025246 -7.6719832 2.1763754
46.270317 -7.9175973 2.1180043
57.772968 -7.6372323 2.1132855
12.101273 -7.2749324 2.2327948
13.797245 -7.0259457 2.0954971
14.820011 -7.0491743 2.0208018
20.434597 -7.1488709 2.1084616
20.850021 -7.2763486 2.0804226
21.118908 -7.3965316 2.0659978
21.808268 -7.226438 2.2396247
22.068508 -7.1876273 2.3991094
23.780296 -7.14395 2.2082884
25.702772 -7.3575883 2.4139192
26.223125 -7.310226 2.3540208
26.571863 -7.4526949 2.2600029
28.356997 -7.167768 2.4707358
28.89209 -7.3595076 2.4791071
29.241302 -7.3974137 2.2825274
29.75765 -7.2234092 2.10572
30.279615 -7.0777917 2.0641253
30.710127 -7.3482995 2.249351
33.597054 -7.0389962 2.1285944
47.282372 -7.2068591 2.16694
57.914879 -7.0707278 2.108794
12.60137 -6.8707719 2.1788309
14.397041 -6.5784197 2.0319331
14.683002 -6.7627792 2.0185483
21.772541 -6.8911881 2.4010193
22.209595 -6.9633565 2.3582015
28.216665 -6.8204179 2.4042323
28.501785 -6.9919667 2.4208975
29.832251 -6.6417336 2.2679915
30.208172 -6.7781758 2.1343498
33.674614 -6.5326395 2.0363054
46.775017 -6.5208025 2.0936513
47.154369 -6.8716893 2.1410978
29.682669 -6.3932686 2.2160459
33.697395 -6.4746609 2.0268269
36.096226 -6.301815 2.2160211
41.729774 -6.1813989 2.1121221
43.547268 -6.0429406 2.3020978
45.880432 -6.4046698 2.0133777
46.697689 -6.1883311 2.0727437
47.184708 -6.080883 2.1096761
47.858269 -6.3745842 2.1793642
49.622589 -6.096612 2.3207135
50.009624 -6.3221607 2.3628514
59.058716 -6.1165638 2.1533689
60.224667 -6.0395498 2.2173874
12.883414 -5.5486512 2.1076186
13.109781 -5.7516837 2.0974097
42.364605 -5.6098452 2.1406114
42.728321 -5.7417254 2.19014
43.764671 -5.964715 2.3215108
44.587826 -5.5692945 2.3910091
46.908581 -5.576407 2.0655525
47.123169 -5.7782483 2.0921137
48.599449 -5.6100907 2.2134728
59.149296 -5.9841919 2.155942
61.100349 -5.5360022 2.2577395
64.456421 -5.9537144 2.4545934
12.438034 -5.4877481 2.1400044
12.77342 -5.446394 2.1125605
13.114608 -5.1484394 2.0758653
13.68867 -5.4363976 2.0414526
34.297985 -5.175355 2.3322074
41.10405 -5.1325526 2.3794208
43.680504 -5.3420229 2.2724564
44.725815 -5.0658069 2.378005
48.401192 -5.399971 2.1884556
50.18602 -5.0954618 2.3352365
60.558987 -5.2596087 2.2224
12.847989 -4.8533821 2.0869124
13.353231 -4.8616714 2.0476818
13.544995 -4.698616 2.0274386
33.117954 -4.6942797 2.0812221
34.448978 -4.7070255 2.2384815
35.180462 -4.5182905 2.3055665
39.289886 -4.6020575 2.07915
43.481037 -4.7737384 2.2154551
43.664841 -4.726222 2.2342355
44.734791 -4.9595618 2.3731596
50.391914 -4.9802809 2.3497956
50.664196 -4.890512 2.3712244
13.435863 -4.082695 2.0167532
13.542847 -4.2853193 2.0144591
33.361965 -4.3367887 2.0130312
33.85881 -4.1737843 2.0304208
40.20237 -4.130362 2.1647811
40.652451 -4.0170393 2.2206535
42.246822 -4.2830358 2.1874206
42.822044 -4.0608377 2.0979283
44.091919 -4.1569867 2.2540977
45.300777 -4.1578894 2.3996
45.690308 -4.2438087 2.4509246
49.497276 -4.0890279 2.2426019
49.774033 -4.3387771 2.2748151
51.299957 -4.2572155 2.4094994
60.931908 -4.2182641 2.2268093
63.470943 -4.3612752 2.3734949
12.930157 -3.7941399 2.0485268
13.236028 -3.8656301 2.026257
39.297508 -3.5471311 2.3171892
39.846668 -3.580333 2.4176087
40.09602 -3.7615082 2.298115
40.661278 -3.9592123 2.2173643
41.463543 -3.6023076 2.3099453
41.554863 -3.6709886 2.3284795
42.429245 -3.597255 2.026583
42.820923 -3.920095 2.0902133
44.965107 -3.8515992 2.3444912
45.306355 -3.8949668 2.3879838
45.757839 -3.758496 2.4369354
49.270248 -3.959825 2.2184656
50.267567 -3.946981 2.3077917
60.712227 -3.7078094 2.2067535
63.52454 -3.5749531 2.3654861
12.997217 -3.3052211 2.0300303
13.245819 -3.4136734 2.01301
16.205727 -3.0069799 2.314183
20.918747 -3.1578817 2.1887114
35.376625 -3.008014 2.0266297
35.683624 -3.1468101 2.1149848
37.85685 -3.048671 2.2958665
38.276714 -3.1273544 2.3441234
40.180244 -3.3097856 2.0968828
41.401543 -3.423856 2.2882679
41.561016 -3.4623713 2.3149991
42.172211 -3.1701458 2.3184354
42.589859 -3.4553015 2.0385556
45.767628 -3.4029284 2.4230735
47.745483 -3.2149508 2.0602636
48.852989 -3.1368098 2.1582971
52.548195 -3.3558226 2.4993782
63.27372 -3.3127871 2.3476646
63.5201 -3.4595976 2.3636916
10.047771 -2.8318648 2.2563853
15.997247 -2.778089 2.3296928
16.146002 -2.8570011 2.3155289
20.860989 -2.9308794 2.1827595
35.411438 -2.9749067 2.02738
35.783882 -2.8442481 2.0812027
36.019146 -2.7702208 2.1188245
37.822811 -2.9820137 2.2806478
38.099125 -2.8735328 2.1114867
42.318871 -2.9070795 2.3965068
42.850376 -2.5455332 2.459902
47.381393 -2.8598127 2.017911
50.083752 -2.9353175 2.2650898
50.691742 -2.8501332 2.3185165
52.274487 -2.6207759 2.4582057
52.511032 -2.6618867 2.4807053
61.862213 -2.9108572 2.2616997
-8.9597549 -2.1858721 2.3833854
38.24633 -2.2942827 2.292438
42.147758 -2.1693285 2.3303425
42.642803 -2.1124082 2.4059734
43.285065 -2.0681312 2.0643089
44.102661 -2.4597788 2.1802402
46.181465 -2.2012081 2.4311543
47.359833 -2.4993644 2.0068619
49.2341 -2.3753052 2.1748543
52.288086 -2.4012811 2.4550095
60.127808 -2.390444 2.1558571
62.305256 -2.3106582 2.2797842
-9.0604582 -1.7715949 2.3839905
37.980461 -1.7934186 2.1864514
38.095692 -1.7700862 2.2093513
38.715874 -1.5442203 2.3286982
41.674652 -1.6195722 2.2298646
42.764229 -1.9197396 2.2028339
43.007809 -1.9363478 2.0251045
51.278809 -1.7818017 2.3506665
60.291412 -1.9015402 2.1595027
61.860329 -1.5128568 2.2454412
62.273682 -1.6540133 2.270679
-9.1543121 -1.4994425 2.385803
37.966869 -1.4196719 2.1505587
38.642273 -1.3793625 2.299608
42.149899 -1.1728411 2.2885196
49.218815 -1.2540803 2.1518683
50.958637 -1.1497416 2.3106825
51.174099 -1.205235 2.3314772
51.611988 -1.1807823 2.371526
61.952118 -1.4121927 2.249685
62.109344 -1.207379 2.2566869
42.056732 -0.91507673 2.2646687
51.634674 -0.71827549 2.3670709
62.245113 -0.84160721 2.2610302
19.939575 4.2905841 2.2509286
20.07556 4.4181037 2.236258
14.256647 4.8907585 2.4902122
20.124907 4.5743184 2.2357223
35.407574 4.9151134 2.0109277
7.5519056 5.1794 2.4169295
14.30125 5.0673981 2.4890919
35.272903 5.0655403 2.0123851
36.8377 5.4999719 2.4050395
37.481457 5.409481 2.2447484
37.637146 5.3305206 2.2648046
38.024323 5.4524388 2.057235
44.833191 5.429266 2.2629564
36.869728 5.70362 2.238395
37.074585 5.6720386 2.2037046
37.745377 5.7761879 2.1204455
38.168213 5.6285348 2.1779182
40.638618 5.9064503 2.1659896
44.407944 5.9326248 2.2292976
44.701805 5.7274723 2.2572522
-7.2491813 6.1381855 2.2630298
20.315952 6.4146667 2.3095126
37.870571 6.1780849 2.3703561
38.222759 6.1759577 2.2298405
38.67992 6.2817616 2.2523732
39.081501 6.2886972 2.3189237
39.949963 6.388144 2.1035159
40.286304 6.249311 2.1401975
40.649715 6.1219645 2.1826375
42.206047 6.4327593 2.4296727
42.605 6.3095422 2.3332043
43.418388 6.2506504 2.1246543
43.631989 6.1316161 2.1447992
44.305035 6.1030412 2.2235863
16.449722 6.9324641 2.3084748
20.402721 6.5574541 2.3071604
20.68289 6.7621408 2.2838991
21.055828 6.7470026 2.2333531
21.659067 6.8468533 2.1620913
22.617039 6.8641829 2.3065643
23.882 6.7474885 2.2160053
24.017572 6.673162 2.1875408
37.907188 6.5463629 2.4794874
42.165958 6.5570822 2.4319987
43.717209 6.6140099 2.1757054
15.68046 7.1210222 2.3994284
16.36075 7.2567673 2.3314793
21.779934 7.1727824 2.1724734
22.370178 7.1774268 2.0989904
22.827829 7.1887865 2.2445009
23.068783 7.300004 2.0248561
23.771267 7.1984348 2.2847223
39.646873 7.2123795 2.1315625
16.220928 7.706069 2.3659158
16.652252 7.6761374 2.3187308
17.058754 7.8353686 2.2831955
21.516125 7.9764681 2.2729337
22.860086 7.6590133 2.0828555
23.352303 7.7712445 2.0875692
38.713303 7.6473451 2.0538666
59.491264 7.9061813 2.0899448
59.550308 7.7663345 2.0923879
15.958652 8.1155148 2.412185
23.277514 8.1014967 2.3357019
23.530954 8.0664158 2.0457351
23.313858 8.8225279 2.1478336
23.576031 8.9465599 2.1333671
39.772781 8.7719393 2.296385
58.694061 8.723958 2.0513327
22.7351 9.1463833 2.2437956
23.267918 9.1553078 2.1880155
22.886063 9.8588762 2.3039365
23.091932 9.5463085 2.2486234
31.039169 9.7572575 2.4540217
36.315716 9.6917896 2.0425746
44.391121 9.6326532 2.4140055
21.606655 10.268212 2.0040579
22.994497 10.387121 2.3518713
44.606537 10.322103 2.4805121
21.268421 10.943051 2.0858002
21.840839 10.726355 2.0221963
22.295013 10.93852 2.0045414
22.67642 10.583117 2.4054527
20.184059 11.39451 2.2111149
21.261799 11.020301 2.0925927
21.50564 11.049356 2.0754035
22.530012 11.133702 2.0036902
20.679884 11.83488 2.2058208
21.315811 11.612882 2.1371708
21.968956 11.636879 2.0892463
22.190376 11.906241 2.0965114
22.523697 11.693367 2.0535221
16.147829 13.24742 2.0121279
16.304913 13.618063 2.0208473
-6.6252136 14.460649 2.2863078
-6.6250534 14.602489 2.28793
-6.4118385 14.674096 2.2793829
-5.8688545 14.622201 2.2549121
22.685825 14.99461 2.3544033
26.827179 14.817792 2.1458397
27.107773 14.844894 2.1402135
-7.4410095 15.358424 2.3327208
-6.6149406 15.351221 2.2964687
16.102352 15.31901 2.1218872
16.792576 15.295715 2.0810153
17.465691 15.257645 2.0411925
20.802664 15.096633 2.4828572
21.565845 15.493551 2.4707022
22.788321 15.048055 2.3538373
23.211246 15.269198 2.3522308
23.753445 15.305228 2.3271101
24.234749 15.281927 2.3007004
24.770901 15.244195 2.2716494
25.277098 15.237916 2.24893
25.748901 15.211924 2.2271235
26.125544 15.193433 2.2109876
27.216129 15.121346 2.1679025
-6.5020027 15.915388 2.2987487
21.704149 15.641966 2.4764645
-8.7616062 16.252474 2.4015365
-6.3428574 16.229698 2.296036
-8.817997 16.676552 2.4093595
23.406267 22.187569 2.2725754
24.177643 22.115585 2.2488191
16.571381 -39.191257 2.8726697
26.925903 -37.74617 2.7181909
25.662672 -37.014961 2.6774781
25.814911 -36.895874 2.6701982
26.498049 -36.802605 2.663552
26.643721 -36.703991 2.6576228
24.15295 -34.455097 2.5348065
35.733189 -25.330009 2.9760373
21.147511 -24.446808 2.9530716
34.919277 -23.932465 2.8309307
32.792351 -23.393051 2.7498384
33.076687 -23.207796 2.7356923
34.338226 -23.170732 2.7500703
34.675175 -23.16519 2.7552826
32.714642 -22.749838 2.6887388
34.885841 -22.860252 2.7307611
35.445347 -22.678644 2.7248743
35.557541 -22.595562 2.7195346
34.880562 -22.048912 2.6553869
35.007328 -22.070854 2.659848
59.511757 -22.410524 2.6746974
17.448563 -20.780113 2.7719526
17.190041 -19.821049 2.7068782
8.9166489 -13.412901 2.7536051
19.808678 -10.174427 2.9901764
20.207771 -10.185436 2.9484499
20.733614 -10.220847 2.8974485
21.08534 -10.059175 2.8414054
17.933762 -9.2188673 2.5065322
18.693659 -9.013649 2.9889476
20.509037 -9.1128759 2.7908363
26.772919 -9.0834999 2.62342
27.4538 -9.1412477 2.9784956
16.564976 -8.6585741 2.5938458
17.414768 -8.7310486 2.5171354
17.556767 -8.8464327 2.5124598
18.674055 -8.7844067 2.9675374
20.490917 -8.918313 2.7707465
20.682905 -8.9032211 2.747668
21.192856 -8.7549438 2.6745186
23.94853 -8.8247585 2.8442571
24.246746 -8.7588329 2.8007503
24.635019 -8.7259493 2.7537241
26.267168 -8.5678787 2.9603696
26.657917 -8.6439152 2.5520511
27.581745 -8.6044979 2.8493657
65.337128 -8.5211163 2.5517364
13.920401 -8.0712967 2.8210588
14.047399 -8.2744198 2.8208044
16.422417 -8.3156433 2.5831468
16.639397 -8.4291697 2.5698814
17.139311 -8.4266996 2.5208042
18.648706 -8.3249941 2.9240952
23.978405 -8.4423819 2.7794237
24.465242 -8.3383055 2.7080412
24.670538 -8.2590818 2.6727426
25.35755 -8.0359306 2.5633042
25.800201 -8.3109922 2.9572155
26.242121 -8.3919582 2.8499668
26.744059 -8.383708 2.8487785
27.302889 -8.1418982 2.7706914
27.508589 -8.1402073 2.7527094
66.929306 -8.2993927 2.636333
20.723206 -7.5051217 2.5897484
24.745449 -7.6034746 2.9481025
25.293388 -7.6978583 2.8290284
25.706289 -7.5621376 2.8168206
26.584568 -7.854526 2.7775803
28.326914 -7.7058973 2.7287107
28.770962 -7.7018785 2.8294957
29.089083 -7.5554314 2.7444777
14.896221 -7.3936343 2.6773593
15.373722 -7.1025414 2.6096146
20.883518 -7.4398751 2.5638943
23.99044 -7.0299282 2.950959
25.830065 -7.3733625 2.7639225
27.241091 -7.1455908 2.89465
27.713099 -7.1911802 2.8551364
28.246738 -7.2490263 2.7726934
28.716354 -7.4330974 2.5064497
29.287771 -7.4214125 2.7890267
13.496243 -6.5229392 2.7759664
13.741007 -6.7822323 2.763762
14.124783 -6.973269 2.7335744
14.887939 -6.7433405 2.6392896
15.135233 -6.8913269 2.6218774
20.764366 -6.8576179 2.987185
21.205431 -6.7500596 2.9077179
23.937128 -6.975369 2.9494374
25.502077 -6.528882 2.989749
26.926054 -6.8769507 2.8666842
27.03886 -6.928555 2.8651824
27.862547 -6.8907804 2.7636476
28.04534 -6.9464493 2.7596035
28.684734 -6.9780879 2.7120681
13.976173 -6.3940191 2.7172155
14.206409 -6.3119178 2.6880198
14.862834 -6.4287858 2.6239185
37.114948 -6.0458241 2.6318324
12.031464 -5.5335236 2.8878703
12.73163 -5.5201168 2.809546
13.16362 -5.6495285 2.7679293
43.909554 -5.794838 2.8372116
48.567806 -5.6350927 2.8654275
12.80001 -5.1309533 2.7843027
13.773207 -5.1590657 2.6774414
12.74595 -4.9760427 2.7835345
13.244877 -4.7148323 2.7165565
42.339149 -4.6265969 2.5155923
42.580135 -4.5542355 2.5456774
44.027256 -4.975174 2.7920036
45.971928 -4.6043005 2.5021913
49.939667 -4.8424006 2.9958279
52.229267 -4.5218525 2.5005038
12.89052 -4.1659436 2.7339864
13.194649 -4.3548551 2.7071471
13.700775 -4.441452 2.6537867
39.847393 -4.1285973 2.8365309
40.595173 -4.09305 2.6001637
42.709381 -4.2985024 2.5462065
44.104656 -4.1392136 2.7467172
46.060677 -4.4307365 2.5044899
12.07571 -3.6446652 2.8074999
12.63014 -3.9971318 2.7570369
13.242386 -3.904386 2.684092
37.238541 -3.5703044 2.5210524
40.328979 -3.63223 2.656635
40.625042 -3.6183949 2.5608289
41.140709 -3.6300957 2.6555448
42.316326 -3.6013253 2.8695214
42.526474 -3.5472965 2.9043727
44.013901 -3.9758492 2.7224548
46.728817 -3.5519378 2.5475543
52.994045 -3.9994888 2.5556061
13.925232 -3.0216503 2.5748672
20.975052 -3.192503 2.5803888
21.083858 -3.0729375 2.7098064
40.573086 -3.4545581 2.5367577
41.19236 -3.4712865 2.6513443
43.481434 -3.0823526 2.5873437
43.521347 -3.2833366 2.6049278
46.911724 -3.1955235 2.5565085
47.129486 -3.3891537 2.5907125
6.8184276 -2.6522982 2.5148489
13.955061 -2.6991611 2.5610533
14.045028 -2.8381968 2.5551453
20.930138 -2.8371611 2.6415753
21.111496 -2.884881 2.8186882
38.346489 -2.6636348 2.6477783
38.614918 -2.6389358 2.7108209
39.639545 -2.5580513 2.9584477
42.311661 -2.5556362 2.7935991
42.550686 -2.5865526 2.8412197
43.202469 -2.7937095 2.5281715
50.589172 -2.6207023 2.9984283
52.853989 -2.8779502 2.5166264
6.7399831 -2.362663 2.5159316
38.748062 -2.0404389 2.6766977
42.430618 -2.2360675 2.796793
42.523834 -2.4719865 2.8289108
43.467587 -2.0483069 2.9872682
43.779572 -2.030468 2.5832326
44.118732 -2.0167618 2.6368566
49.224457 -2.117116 2.8123105
49.565544 -2.3387456 2.8613911
50.234318 -2.0847497 2.9392583
38.704983 -1.7195919 2.6342211
41.589497 -1.7924788 2.6090994
43.343197 -1.8643826 2.9537876
43.809975 -1.9458605 2.5845809
44.078522 -1.7639519 2.6204574
49.08596 -1.6529074 2.7831588
-21.077932 -1.3832861 2.9464202
38.635391 -1.3228149 2.5804291
39.397354 -1.3022529 2.7796063
41.83728 -1.0830702 2.6872406
42.189003 -1.3357328 2.7031684
49.04007 -1.4249252 2.7721024
41.365601 -0.83322006 2.895376
41.819828 -0.87086439 2.6112564
49.365448 -0.73274231 2.7999637
19.943439 4.2527366 2.672868
20.044043 4.3697033 2.6606376
54.245636 4.9260497 2.5991652
0.81355 5.4253845 2.9650934
13.877563 5.4595428 2.5466919
14.21648 5.1830912 2.5014503
37.90358 5.4719934 2.6344125
44.79052 5.4401655 2.7671738
53.995605 5.2926307 2.5798674
54.140766 5.2232194 2.5924509
0.8712101 5.631176 2.9618359
13.940584 5.5724788 2.542412
38.053902 5.7005539 2.7019634
38.698715 5.9085188 2.5443199
43.823101 5.8041563 2.6355493
44.024727 5.6107669 2.6566601
44.658699 5.6317592 2.7554929
54.093388 5.641026 2.5926001
-14.004814 6.0999846 2.5789087
-13.891106 6.2465515 2.5735579
23.032265 6.0893517 2.9899812
37.750614 6.1837878 2.7110057
38.299347 6.2033496 2.6847563
38.690891 6.1575336 2.5743589
40.37978 6.2992949 2.6697423
40.608238 6.2012792 2.8059227
43.757286 6.2847309 2.6514983
44.211609 6.1706362 2.7140362
54.739212 6.2482467 2.6587498
55.96653 6.2111578 2.769522
-21.301605 6.5720215 2.9205055
23.820038 6.7543321 2.7463646
24.145878 6.906836 2.5356064
37.946167 6.7427025 2.6788168
38.015869 6.6385827 2.8419807
39.276634 6.9752746 2.7925928
40.290005 6.6949096 2.5621607
40.934223 6.9906974 2.7001021
41.981506 6.7507119 2.8590987
43.476795 6.6601405 2.631561
43.605312 6.6573753 2.6505535
53.665886 6.8280582 2.5704169
54.60936 6.5185504 2.6506789
55.355507 6.7882228 2.7219141
55.593716 6.9369164 2.7455833
16.254974 7.2762432 2.9231553
19.419537 7.4489927 2.9864597
20.230495 7.4834461 2.8574829
21.837925 7.4014063 2.5954409
22.781313 7.1379848 2.8067522
23.039137 7.0956402 2.7549
23.873596 7.2125726 2.9855103
24.124146 7.2095795 2.7624099
40.480415 7.0464916 2.6292591
40.661186 7.431366 2.6989603
41.215042 7.26612 2.7746391
43.079479 7.0859551 2.6005282
53.908333 7.1000252 2.5966461
54.109112 7.4567118 2.6208179
15.879678 7.5155287 2.9891503
16.178564 7.6799445 2.9569836
16.852512 7.8854494 2.8764579
17.138248 7.7163353 2.8266063
19.428244 7.5510798 2.9940693
19.787291 7.6853142 2.948009
20.212154 7.6787109 2.8790584
20.641428 7.714941 2.8141613
21.80191 7.6205645 2.6244061
23.251858 7.9806848 2.8420103
38.948254 7.859386 2.8573098
54.206562 7.7040496 2.6340382
16.95702 8.0177679 2.8705411
22.994106 8.0775585 2.5006824
23.198004 8.269515 2.7934446
41.995232 8.3602266 2.5446191
20.275177 8.8278322 2.9858956
22.844999 8.7365808 2.6030018
23.151861 8.7661543 2.6667054
42.259949 8.6021214 2.6008012
22.878687 9.3273449 2.6750298
23.014214 9.4836664 2.677809
22.624895 9.6745834 2.7537637
23.004856 9.5508184 2.688024
22.724257 10.200169 2.8118515
22.041969 10.632111 2.9570801
-22.651449 11.402468 2.9910293
20.0961 11.485605 2.7727056
21.84737 11.265296 2.5646949
21.408438 11.52052 2.6374533
21.500265 11.569918 2.6335554
22.041962 11.639336 2.5874538
21.351387 12.200525 2.7189257
21.821104 12.867361 2.7509825
17.474766 13.479952 2.6013951
17.710728 13.286129 2.5664916
17.584888 13.555488 2.5978403
18.258194 13.662323 2.5501099
22.774832 14.98926 2.9338691
23.022871 14.998213 2.9162738
26.834045 14.808226 2.6640832
18.828541 15.282118 2.6401706
22.717113 15.005432 2.9402869
23.051298 15.178246 2.9377146
24.863001 15.224503 2.823617
25.013132 15.241648 2.8172019
18.835487 15.626163 2.669611
20.692097 15.617079 2.5386794
21.175198 15.695888 2.5147252
23.051235 15.531312 2.9840972
17.628605 17.233141 2.899394
18.3444 18.248642 2.9403861
-12.606319 18.525711 2.5981839
18.565239 18.986065 2.9944322
23.86223 27.635683 2.6824551
24.22316 27.584375 2.6721475
24.770641 27.563082 2.661598
36.782745 -27.680185 3.2152271
36.78059 -27.318413 3.1817987
33.896175 -26.522383 3.0560892
13.099968 -24.482475 3.2541237
30.646053 -22.585154 3.4883451
30.568678 -22.428291 3.4679434
31.180233 -22.162106 3.4355862
32.73761 -22.075556 3.4385498
30.795399 -21.739552 3.3795877
31.300091 -21.811049 3.3908641
32.330593 -21.973528 3.4204259
33.30175 -21.687057 3.3968892
33.504997 -21.719692 3.4044938
34.251976 -21.813095 3.4310431
32.427589 -21.460188 3.355309
32.542549 -21.418053 3.3512573
33.236809 -21.434336 3.3632753
34.25309 -21.355442 3.372478
33.687355 -20.874184 3.2992246
31.293493 -19.748947 3.124542
31.698896 -19.633585 3.1123676
32.078117 -19.57233 3.1078706
32.075024 -19.499134 3.098376
32.749565 -19.020643 3.0450273
32.715549 -18.913412 3.0307701
9.9403687 -11.624537 3.4613597
10.131724 -11.882393 3.4600387
19.110968 -11.600952 3.2332795
9.4665508 -11.147509 3.4774179
9.8981819 -11.153381 3.4338048
10.129189 -11.267448 3.4180164
12.082146 -11.09591 3.2106972
13.005342 -11.057878 3.1172965
9.4787636 -10.992502 3.466027
16.496998 -10.130941 3.3682334
20.748781 -10.213929 3.4448996
17.668205 -9.6698589 3.1796627
20.232565 -9.7189436 3.4414036
20.705259 -9.8041573 3.3906415
23.342682 -9.5526485 3.0296094
18.178371 -9.0924234 3.0588684
19.656868 -9.3065996 3.4637065
23.25602 -9.4137325 3.0171402
27.533422 -9.3047209 3.0089583
30.674862 -9.4072008 3.285018
16.832449 -8.8260899 3.1987798
17.09544 -8.7212172 3.1556921
17.750195 -8.660778 3.0680776
18.32362 -8.8753672 3.0191541
19.543015 -8.8414135 3.4182103
24.313797 -8.6518164 3.2061293
24.551067 -8.5495672 3.155549
25.816509 -8.5642862 3.0074825
28.212179 -8.7239809 3.2054365
29.222841 -8.5710659 3.1007042
45.372292 -8.9243002 3.3213174
58.128654 -8.6406364 3.1570306
61.384029 -8.9181728 3.4534733
17.924788 -8.2958708 3.0109265
18.403606 -8.0240297 3.4872639
24.46896 -8.3893633 3.1352167
24.93371 -8.2673035 3.4641063
25.792061 -8.1147385 3.3085411
26.052616 -8.1413603 3.280477
28.326725 -8.2311287 3.0674858
29.461451 -8.3950205 3.0418329
29.61409 -8.375 3.0298221
18.435333 -7.8376451 3.4606895
18.537498 -7.7682323 3.4367445
21.20797 -7.5485945 3.0092998
25.168579 -7.7055964 3.3023674
25.831598 -7.9130116 3.255542
47.045349 -7.5165763 3.4316638
20.976471 -7.2850499 3.48751
21.248083 -7.1640377 3.4218814
24.895758 -7.3707299 3.2698498
25.246153 -7.335526 3.2078347
25.804226 -7.3386512 3.1259837
14.522423 -6.5677643 3.3195758
15.187601 -6.6428962 3.2327104
20.873972 -6.7392807 3.4259567
25.277172 -6.9865508 3.1255214
46.684486 -6.880827 3.3286357
13.876301 -6.3519702 3.3952537
14.316717 -6.3431339 3.3327334
14.640768 -6.3419952 3.2874098
15.20056 -6.434689 3.2157478
22.549583 -6.3552513 3.4921789
14.611322 -5.9107809 3.2620983
42.421677 -5.6219616 3.0748525
47.940392 -5.9754567 3.4512215
14.457109 -5.1041064 3.2333848
46.238262 -5.1538715 3.1380529
13.420016 -4.7303348 3.3625331
13.739143 -4.5901284 3.3083787
42.580811 -4.582943 3.4617319
46.03949 -4.5126019 3.0671253
13.964383 -4.1314263 3.2516077
14.028328 -4.2031727 3.2458217
40.82412 -4.3716197 3.0675201
41.099312 -4.2544274 3.1120141
44.106781 -4.167594 3.2470198
13.857518 -3.9218884 3.2569289
14.002274 -3.8822083 3.2336574
41.838379 -3.7992291 3.2209969
43.727303 -3.8453462 3.1515164
44.330078 -3.7381082 3.2570908
39.721104 -3.0459156 3.0344102
40.242802 -3.1740398 3.1797791
43.177341 -3.2883639 3.4695399
43.911602 -3.1996059 3.1406953
44.196381 -3.1642668 3.1927183
51.995865 -3.2498641 3.1940041
52.091103 -3.1755483 3.2037849
58.397499 -3.1586757 3.0303919
58.600639 -3.0912557 3.0477641
-0.29622841 -2.5084925 3.0926294
6.8269501 -2.549232 3.3820701
13.998432 -2.6793289 3.1819651
14.057081 -2.8247395 3.1788831
20.827082 -2.6392717 3.3744221
21.384708 -2.6815193 3.2404871
39.86441 -2.7718716 3.0389593
40.004765 -2.8492422 3.0827992
42.886299 -2.5144114 3.3443792
44.187866 -2.7243843 3.1641505
46.359493 -2.84797 3.0298688
51.92997 -2.9410262 3.1766074
-0.066342354 -2.2077661 3.0692806
0.012627602 -2.200063 3.0626721
6.7623863 -2.3448741 3.3849173
42.407993 -2.1900272 3.2129655
42.871326 -2.4257202 3.3347454
43.648567 -2.2173166 3.0313504
49.07206 -2.3499036 3.4451554
41.830204 -1.6486391 3.4504831
42.209427 -1.6302994 3.2692318
44.325676 -1.9171072 3.14816
47.565739 -1.7276045 3.1813502
48.380753 -1.5862811 3.3090913
48.930176 -1.8228241 3.4051218
51.287636 -1.5727156 3.0610633
-27.910149 -1.1603707 3.2665737
41.463352 -1.0174116 3.3128948
41.855801 -1.1642536 3.0251691
42.02919 -1.4305863 3.0793386
44.388073 -1.0841593 3.1262076
48.110054 -1.3081186 3.2574329
49.38224 -1.0543951 3.4580369
49.506794 -1.1321193 3.480139
51.349533 -1.4732906 3.0668559
63.324814 -1.0743589 3.4533906
-31.399467 -0.62352514 3.426893
41.381939 -0.73552716 3.2764757
49.308758 -0.82600856 3.4410436
