# .PCD v0.7 - Point Cloud Data file format
VERSION 0.7
FIELDS x y z
SIZE 4 4 4
TYPE F F F
COUNT 1 1 1
WIDTH 1567
HEIGHT 1
VIEWPOINT 0 0 0 1 0 0 0
POINTS 1567
DATA ascii
50.65987 -7.6043859 0.97190189
51.177895 -7.6251006 0.64938819
51.634594 -7.7557197 0.5787338
53.475208 -7.9329782 0.63004339
53.73827 -7.7238297 0.62971306
54.157883 -7.9384189 0.64736211
54.838348 -7.9346809 0.66448998
55.263977 -7.9766622 0.67671764
26.032433 -7.2724781 0.98162293
27.346651 -7.0986032 0.92610288
27.701365 -7.0343628 0.91039658
33.918053 -7.147748 0.71753049
34.219524 -7.161869 0.71042496
34.885742 -7.2687626 0.70034564
35.107121 -7.1111259 0.68517315
36.828182 -7.0598421 0.95870775
38.105911 -7.4280639 0.70292443
39.391117 -7.0799494 0.89294255
39.714573 -7.3354945 0.86520332
40.019234 -7.1005006 0.6174835
45.210148 -7.4082127 0.72728395
45.899513 -7.1578817 0.73341095
46.370506 -7.2108612 0.7546612
47.085625 -7.309329 0.78953171
49.832344 -7.1239729 0.51371419
50.038654 -7.0515609 0.51605356
50.821674 -7.4005141 0.96824247
51.272831 -7.1273303 0.97597218
55.290436 -7.4169111 0.6593613
55.591793 -7.3327398 0.6644873
64.048126 -7.140378 0.88483804
26.392139 -6.8001652 0.94673264
27.655521 -6.999238 0.91034448
33.845718 -6.8518333 0.70190936
34.097668 -6.8759947 0.69645834
35.124889 -6.9982872 0.67765826
35.699036 -6.5880523 0.9615702
36.176369 -6.7069154 0.6352421
36.876461 -6.8518615 0.83450657
39.28587 -6.9216499 0.8776536
45.47345 -6.6113997 0.84813517
45.72187 -6.6466532 0.94227713
46.302834 -6.5677795 0.70860106
48.922646 -6.5216537 0.82248878
49.279457 -6.7864246 0.85563993
49.676376 -6.9025989 0.68942362
50.108898 -6.9223037 0.51322645
64.104584 -6.8553438 0.87817866
35.599499 -6.4960942 0.95788395
36.231857 -6.3368964 0.61016136
45.78093 -6.1073937 0.90459704
46.261185 -6.304636 0.83150542
46.693211 -6.1211472 0.76048434
47.223125 -6.1894741 0.72268558
47.700874 -6.1233649 0.74025273
48.024223 -6.0104647 0.74850959
48.981842 -6.4330111 0.82011688
33.924652 -5.651228 0.97607803
34.073769 -5.5335903 0.95828414
35.437798 -5.5092001 0.8805185
35.864449 -5.8048649 0.64520091
36.186142 -5.5503988 0.84616101
45.666599 -5.9977393 0.91110796
46.481735 -5.853364 0.66875607
46.761181 -5.843802 0.73305953
47.172791 -5.8669591 0.93449724
47.871998 -5.9592957 0.73818439
48.154331 -5.9611611 0.75177079
33.856495 -5.2745891 0.95149052
36.23595 -5.0784893 0.80276263
36.167988 -4.9982114 0.7993716
51.254913 -4.9857655 0.86238807
60.856026 -4.8263044 0.73162282
33.791451 -4.0992947 0.87198925
43.932526 -4.1172938 0.80409741
44.055859 -4.0925412 0.81530595
44.94751 -4.1643615 0.79148197
49.7215 -4.3652024 0.74553919
27.684715 -3.5294435 0.76035708
33.437054 -3.9489813 0.88545716
33.837208 -3.8950622 0.85544437
34.014118 -3.7287734 0.83289218
35.426304 -3.6824653 0.80432206
35.510139 -3.7103827 0.73549396
38.302723 -3.6894825 0.8318783
38.681011 -3.7719829 0.7466898
27.681295 -3.3188155 0.75267977
33.746113 -3.4338462 0.52316391
34.748127 -2.5525196 0.9762882
34.478584 -2.1059871 0.97385651
34.707458 -2.2789574 0.96151948
35.355541 -2.4225874 0.90510535
31.978727 4.2628345 0.77501184
32.321873 4.34027 0.75172251
32.789371 4.4135303 0.72008586
34.685352 4.4294195 0.59291077
35.403175 4.4742556 0.61335385
35.555393 4.4484806 0.79562098
55.522743 4.4814258 0.86758596
19.953165 4.5980635 0.88561171
20.012705 4.7422042 0.88128847
32.451199 4.5929298 0.74565053
32.870571 4.7328176 0.71900064
33.019054 4.9789662 0.71298605
34.262463 4.7326689 0.92827737
34.756298 4.7218523 0.70499599
35.288006 4.6481547 0.66127414
35.647926 4.8243027 0.73221111
54.253815 4.8481326 0.78801149
54.84407 4.5555325 0.82566279
55.218895 4.6379623 0.84783012
55.595184 4.7683692 0.86974418
61.122993 4.8915224 0.50948471
32.860115 5.1269522 0.72621739
33.192158 5.155582 0.70479971
34.199383 5.1747746 0.84966487
34.840469 5.2452946 0.70231611
35.371334 5.1942902 0.67087585
35.727619 5.237247 0.66854072
36.166531 5.3828735 0.68243247
45.352764 5.4470906 0.96643853
45.702065 5.3325386 0.82737124
46.384319 5.4040909 0.77286744
46.532959 5.4898238 0.85382718
54.541847 5.4432898 0.80223095
64.716446 5.0926723 0.60536516
65.184113 5.0169582 0.61988747
31.626207 5.8255234 0.82056034
35.196327 5.5509653 0.88107097
35.79084 5.6753726 0.64447755
36.289619 5.6887665 0.64724612
36.614594 5.8673587 0.65604788
37.281353 5.9546785 0.94679248
37.792442 5.9243312 0.95193052
38.361019 5.9285131 0.75858098
38.684929 5.9021897 0.71794534
40.293514 5.8659415 0.66547579
40.611542 5.869823 0.86650115
41.408489 5.8782296 0.72614312
41.699955 5.8863754 0.74045563
42.168682 5.9071517 0.75286508
43.877396 5.9855895 0.7217865
44.247112 5.7598987 0.79178721
44.746838 5.7728572 0.84326613
45.261818 5.6721821 0.76491147
45.635735 5.6460309 0.66659504
46.323639 5.6746979 0.75189507
46.783257 5.6919794 0.7612865
47.173199 5.6832957 0.65989691
54.071941 5.9177494 0.7729606
54.612328 5.5478487 0.80599642
64.713402 5.9742084 0.5880931
18.746931 6.2993526 0.91428888
21.456406 6.3516617 0.80591625
35.209156 6.1177449 0.60827249
35.754059 6.0976853 0.86687988
36.326271 6.1033592 0.68624133
36.828491 6.1218824 0.78980398
37.290615 6.2039981 0.70392376
37.737869 6.2990246 0.74448824
38.338673 6.0882807 0.85600793
38.744076 6.1815033 0.80875748
39.187641 6.3449383 0.84416223
39.577511 6.4344649 0.75170332
40.386372 6.0926633 0.72823602
40.768684 6.1789742 0.70753717
41.252747 6.1254802 0.7496081
41.824768 6.1866813 0.65480149
42.267826 6.158154 0.75485736
42.729122 6.2329526 0.73733407
43.262234 6.3165321 0.8258068
43.7192 6.3132839 0.77975577
44.204632 6.2605424 0.66533035
44.847713 6.0564394 0.57919896
45.156422 6.242754 0.67451257
45.729813 6.2458305 0.58630735
46.45488 6.0540676 0.62399399
46.595253 6.1869783 0.79991144
47.276615 6.2614388 0.68963486
47.880272 6.3339734 0.73631746
54.291485 6.4116116 0.78507018
54.793671 6.2043915 0.81472647
55.680134 6.1991796 0.86697721
64.67337 6.1700377 0.58324528
18.752268 6.633266 0.910761
19.123196 6.7865286 0.8945694
21.238766 6.8128309 0.81079644
21.629364 6.7609181 0.79588532
30.708982 6.8978438 0.9016428
36.915405 6.6673589 0.54714102
37.700783 6.7138815 0.51877528
38.758808 6.7916436 0.69469482
39.250137 6.6777625 0.79920453
39.665142 6.6803532 0.81801325
40.363045 6.5023003 0.7748791
40.70454 6.6937685 0.85900319
41.146202 6.5473733 0.66350985
41.956268 6.5583696 0.67144114
42.342735 6.568985 0.78995079
42.908325 6.6416526 0.92936027
43.261543 6.6340818 0.84496701
43.683563 6.6796899 0.83359253
44.308155 6.5336494 0.52567279
45.622044 6.6915269 0.60206646
47.805508 6.6182518 0.74162781
54.424103 6.6824059 0.79264647
55.482887 6.8344326 0.85395074
56.146645 6.6562705 0.89316303
18.612204 7.0574241 0.91242284
21.247768 7.4294052 0.80613035
21.631401 7.1417465 0.79306221
35.856468 7.0561409 0.92197949
36.054298 7.240799 0.61053389
37.48708 7.0397334 0.81840181
37.526009 7.0805526 0.81957513
38.258377 7.0189581 0.51654601
39.256638 7.0766659 0.8078481
39.727982 7.024056 0.97094721
40.195606 7.1129684 0.96919054
40.971474 7.1317391 0.88028413
41.292572 7.155509 0.96320349
43.241249 7.029604 0.99498355
45.777466 7.2626905 0.85010129
46.29752 7.3983994 0.67680293
54.23679 7.3217077 0.78245914
54.600182 7.4061222 0.80323267
55.712715 7.2949362 0.86694705
21.247498 7.5931649 0.8051424
36.462704 7.5669751 0.60801172
36.872658 7.5083642 0.58900601
39.950153 7.7357836 0.52564794
40.857342 7.6641846 0.51738429
41.101685 7.7546015 0.52376646
46.082588 7.6491766 0.97568691
54.36496 7.7394938 0.79070181
20.23024 8.4975557 0.8394739
21.003696 8.449501 0.81013411
36.211403 8.3939257 0.65790945
37.141193 8.3616438 0.944601
38.826504 8.0756063 0.56254816
42.103325 8.4970703 0.58120203
43.989296 8.4206495 0.91781652
55.378212 8.105197 0.84869063
20.396004 8.5623779 0.83282942
20.563133 8.7441845 0.82567501
41.909184 8.9390707 0.60672957
57.96299 8.9350157 0.99694061
58.004627 8.7760649 0.99920219
20.461971 9.0028887 0.82851619
40.550144 9.2009487 0.61479205
41.699028 9.1918802 0.62040919
45.195343 9.0907755 0.71174031
55.948647 9.4652348 0.88533401
57.842133 9.1717501 0.99041462
22.362686 9.9238644 0.75623077
32.606976 9.7388735 0.87919593
33.4077 9.9828186 0.85053128
33.76123 9.8656349 0.82932055
36.565002 9.8129559 0.71828741
37.750374 9.8550873 0.68867528
55.323868 9.7821026 0.85304785
55.89497 9.7854261 0.8840763
56.18148 9.9412107 0.90051526
56.90144 9.7428389 0.93919426
57.045105 9.9422979 0.9479562
57.93335 9.9933939 0.99753308
22.347668 10.434869 0.75694829
22.686066 10.420447 0.74485284
32.89518 10.021449 0.87640166
33.549751 10.153104 0.85140115
38.121044 10.08134 0.6940037
54.443085 10.374767 0.81086683
54.60326 10.393122 0.81937963
55.304058 10.310763 0.85569018
55.583736 10.180018 0.86965525
56.049606 10.214219 0.89494628
57.496624 10.108069 0.97364306
57.88472 10.079491 0.99511278
33.26136 10.567476 0.8826074
37.602062 10.81756 0.74750626
38.673687 10.739071 0.72419196
54.370079 10.824801 0.81133556
54.964573 10.598311 0.84004158
55.140209 10.621473 0.84944576
32.339054 11.066523 0.94655365
38.736588 11.435997 0.76583445
40.913864 11.025271 0.7317546
42.532539 11.484652 0.77919704
54.316753 11.264916 0.81318825
54.86153 11.186455 0.84018451
55.114822 11.010839 0.85152251
31.967688 11.892455 0.99919981
40.39677 11.886647 0.78521186
42.495705 11.511502 0.78026998
46.538345 11.824846 0.92821252
54.703598 11.833505 0.83892679
57.221085 11.945391 0.96980298
36.820629 12.444611 0.85854155
42.695961 12.270059 0.83223641
54.665844 12.204206 0.84134066
55.213963 12.449162 0.87145394
36.747864 12.503449 0.86354172
31.295082 13.249909 0.51164585
31.432899 14.370405 0.52912909
36.640167 14.338972 0.97275412
37.046944 14.329888 0.96494162
37.702461 14.306289 0.95367897
39.348118 14.216098 0.93399453
43.256886 14.470132 0.98319143
43.743889 14.426363 0.99116933
31.373491 14.606657 0.53482485
31.7537 14.583791 0.52691638
32.23885 14.561924 0.51735121
32.596222 14.551656 0.51070231
33.094776 14.517356 0.5014829
39.902142 14.68399 0.9625141
40.310257 14.593366 0.95725328
42.10836 14.545443 0.96844131
73.413147 20.834736 0.58042473
88.843109 41.871712 0.69339895
88.615021 42.108944 0.68518943
89.204041 42.914959 0.68977273
90.464264 42.846283 0.72057933
88.98114 43.013687 0.68334162
92.631042 44.419579 0.75373608
25.266188 -37.683147 1.4924523
26.003664 -37.027496 1.4695139
12.201265 -30.537117 1.2080075
18.171265 -30.527796 1.2039504
13.905955 -29.896399 1.1828556
13.809136 -29.157387 1.1563048
14.209743 -29.235987 1.1586537
13.30613 -28.66737 1.1394062
14.256081 -28.989845 1.1497189
37.762005 -28.908361 1.2142446
13.335461 -28.335163 1.1274824
13.832556 -28.428724 1.1300956
10.676476 -27.7253 1.1109276
14.716549 -27.708818 1.1030406
17.778923 -27.853338 1.1052959
12.079613 -27.012709 1.0828984
11.449131 -26.641701 1.0712807
13.192265 -25.623779 1.0317539
13.351248 -25.108988 1.0133717
13.75255 -25.282099 1.0185567
36.671551 -24.019985 1.0076576
39.350109 -17.358858 1.3862008
76.155212 -16.114452 1.4788864
40.271225 -15.754652 1.2697892
76.24295 -15.860679 1.4733944
40.133759 -14.871735 1.2022858
40.973606 -14.565832 1.1849273
69.795502 -14.914844 1.2743695
74.283859 -14.661639 1.3846271
40.464413 -14.429854 1.1708642
40.690174 -14.408895 1.1708676
41.424889 -14.140738 1.1568289
41.753578 -14.198112 1.1646394
42.004723 -14.092738 1.1595125
69.340736 -14.233445 1.2410059
70.981201 -14.00898 1.2770824
40.802429 -13.732441 1.120502
41.184982 -13.716385 1.1224276
43.142212 -13.866563 1.1583662
69.367249 -13.699257 1.2249628
71.160774 -13.96962 1.2806032
71.560913 -13.913598 1.2894499
72.021042 -13.745037 1.296459
42.100922 -13.206143 1.0935184
69.573532 -13.437918 1.2222471
19.958302 -12.650206 1.456822
42.206234 -12.863134 1.068861
42.209724 -12.029699 1.444154
70.4953 -12.305462 1.2119354
70.622139 -12.282849 1.2146412
71.038208 -12.185143 1.2228045
21.084412 -11.636902 1.3673906
41.881653 -11.628968 1.3952874
42.171005 -11.889497 1.4280955
42.904209 -11.982574 1.0122788
70.353149 -11.661008 1.1886719
70.638641 -11.537673 1.1926289
21.047266 -11.2289 1.3484902
27.875702 -11.363055 1.134231
28.269913 -11.432741 1.1268817
41.362537 -11.329953 1.3566586
43.748428 -11.090141 1.371802
70.397545 -11.148703 1.1745325
70.53418 -11.200962 1.1797612
79.830521 -11.14045 1.4308745
27.294197 -10.58355 1.1078153
28.865818 -10.709192 1.067888
40.836723 -10.677913 1.2809805
41.24548 -10.624889 1.2774975
41.843834 -10.760303 1.2983915
42.376572 -10.615242 1.2899088
42.931885 -10.713082 1.3110365
51.456505 -10.641796 1.193902
70.347984 -10.786997 1.1624389
70.55809 -10.634483 1.1636001
72.695557 -10.541298 1.2188005
79.064362 -10.77338 1.3994598
26.954086 -10.090988 1.0916594
27.237921 -10.234185 1.090434
27.953283 -10.419346 1.0784872
28.190943 -10.423588 1.0715331
37.227112 -10.105054 1.2544473
40.904221 -10.409059 1.2515124
41.157719 -10.32927 1.2441889
41.612705 -10.233278 1.2373003
42.366436 -10.065394 1.2288742
42.561939 -10.080316 1.2338728
45.424877 -10.067608 1.3172148
45.670055 -10.167796 1.3378658
70.476334 -10.43056 1.1553761
70.684837 -10.224853 1.154985
71.006096 -10.060513 1.1588943
72.49588 -10.349957 1.2078085
23.442205 -9.5449772 1.1822748
24.642672 -9.7527227 1.1507547
25.386276 -9.8167677 1.1287447
25.626787 -9.8622169 1.1230071
26.833832 -9.9600649 1.0885105
36.9641 -9.8704348 1.2365786
37.189392 -9.9108763 1.2351958
42.40234 -9.8822365 1.2091274
42.787678 -9.8847151 1.2166439
43.014763 -9.5690937 1.1865999
45.165379 -9.6167736 1.2590408
71.822105 -9.9379177 1.1775234
72.118607 -9.6784897 1.178116
23.699675 -9.2827282 1.1604987
26.550026 -9.3814526 1.0673594
37.90329 -9.4502602 1.1711179
38.172462 -9.2346544 1.1430999
38.554893 -9.1671963 1.1291348
39.742443 -9.1081457 1.109091
42.954399 -9.1259365 1.136404
43.140732 -9.1438265 1.1427391
43.626766 -9.1133919 1.4971797
44.868477 -9.0342445 1.1854997
45.062996 -9.0585251 1.1957767
50.076435 -9.1731758 1.0391808
14.04853 -8.565731 1.4923662
19.101366 -8.7456999 1.3050253
21.05393 -8.713562 1.2303232
23.757866 -8.662528 1.1288838
35.624443 -8.6698275 1.1591475
37.338696 -8.5956459 1.0957868
37.934296 -8.6971912 1.0914948
38.096806 -8.582263 1.0759127
43.380417 -8.6304855 1.0925826
43.790768 -8.7373581 1.3040832
44.217495 -8.7708559 1.2171625
44.523769 -8.8009834 1.1475636
48.714825 -8.8060293 1.3644323
53.940929 -8.616662 1.1980392
54.18713 -8.8624182 1.2244412
55.887306 -8.5235939 1.2984221
13.923382 -8.2864246 1.486304
14.017205 -8.2573128 1.4815004
18.723732 -8.2234554 1.2972699
22.212524 -8.4457865 1.1753483
24.141729 -8.314867 1.0987247
25.964987 -8.2391233 1.029999
26.014973 -8.3187504 1.0321264
28.713274 -8.4491329 1.4983964
34.60844 -8.1830883 1.1555064
35.022442 -8.2135448 1.1401607
36.241123 -8.1752377 1.0884718
36.829102 -8.1902218 1.0699304
37.286266 -8.1069527 1.0475602
37.588936 -8.2262659 1.0512013
38.232635 -8.3218527 1.1534876
38.664036 -8.2179976 1.0262533
39.410294 -8.0674191 1.2319421
39.776951 -8.237443 1.1496203
43.616489 -8.4076929 1.0749429
45.485466 -8.0949421 1.4441242
45.543999 -8.3872232 1.4873964
48.259201 -8.4182167 1.2991443
48.806179 -8.4238863 1.3349509
53.809383 -8.1660004 1.1666726
54.288097 -8.2117167 1.1949227
54.71151 -8.1411095 1.2142074
55.805218 -8.4067278 1.2879118
14.343102 -7.7917252 1.4506278
14.517303 -7.5417647 1.4341794
18.417194 -7.8664145 1.2942964
18.641537 -7.6956692 1.2786934
21.108519 -7.5995383 1.1798444
21.711767 -7.5658979 1.1554706
24.32192 -7.7774296 1.0673414
28.47279 -7.8886991 1.4733584
30.353107 -7.8557343 1.3549759
34.324394 -7.5757866 1.1143513
34.64941 -7.7079902 1.1107088
36.324352 -7.7993293 1.2558384
36.704597 -7.7811623 1.2421027
37.300861 -7.6995025 1.2988021
37.599392 -7.7052422 1.3192292
38.141956 -7.8391376 1.3151529
38.692848 -7.6122198 1.2648361
39.260021 -7.8279357 1.2794427
39.842155 -7.6431022 1.2413701
44.990959 -7.8958182 1.0702915
45.190727 -7.6236887 1.1002047
46.324535 -7.7461848 1.4536057
51.373959 -7.5967908 1.0075482
54.364197 -7.9775443 1.1866815
54.812328 -7.8409934 1.2042171
14.737106 -7.3247027 1.4172401
21.619955 -7.4811063 1.1553406
22.785227 -7.4831715 1.1113261
24.197039 -7.1073251 1.0418882
24.737572 -7.3685927 1.033446
27.454937 -7.1146126 1.4875071
33.420406 -7.1174579 1.1216383
33.584503 -7.1188378 1.1129656
34.246292 -7.4365597 1.1060017
34.872845 -7.1340041 1.0489982
37.352818 -7.4518356 1.2971171
37.876316 -7.179709 1.2369287
38.22509 -7.249197 1.3131192
38.643135 -7.3031402 1.2238271
39.194862 -7.3170247 1.2474037
39.789948 -7.3585472 1.3527136
40.004108 -7.3345208 1.4781083
45.25285 -7.2038941 1.2072049
45.797745 -7.146533 1.3377368
46.098038 -7.1797438 1.051615
46.70269 -7.1415482 1.4045482
51.153297 -7.1108027 1.3949063
55.240734 -7.1918869 1.1955936
55.738358 -7.1904893 1.223701
56.128345 -7.1750755 1.2452139
13.555326 -6.5757775 1.4367806
23.815369 -6.943327 1.0490608
27.380421 -6.994863 1.4847932
33.354408 -6.7230964 1.0932182
33.784203 -6.5530877 1.4275881
34.24543 -6.6174855 1.1571242
35.268963 -6.7194676 1.2835267
36.960014 -6.812005 1.2350628
37.387592 -6.6430335 1.4086158
38.26572 -6.9875283 1.4858412
39.190365 -6.7449183 1.3997506
45.858128 -6.8300285 1.30066
46.166943 -6.7820287 1.2176865
46.76284 -6.6419215 1.1927896
47.052368 -6.9081674 1.0815808
47.877121 -6.5285344 1.431686
48.145233 -6.6796861 1.3050946
49.862896 -6.5568523 1.2499117
50.032928 -6.5134249 1.2596724
83.414116 -6.5595231 1.4053818
13.479622 -6.4694076 1.4360065
13.902468 -6.2637377 1.4116645
14.012604 -6.140408 1.4028528
14.81469 -6.3576398 1.3783863
33.203922 -6.4307151 1.0783982
34.262726 -6.4110355 1.3740995
35.181526 -6.4333358 1.3060703
35.542686 -6.3990273 1.27598
36.479481 -6.2443647 1.4954187
37.363159 -6.4330525 1.4535655
39.086609 -6.3861237 1.3422198
45.725857 -6.0513358 1.1905199
46.30302 -6.2228265 1.2575607
46.724495 -6.2793884 1.2239662
47.199169 -6.2516356 1.1335304
47.868061 -6.264245 1.1942689
48.401245 -6.298068 1.1186148
48.741493 -6.1492996 1.1312625
49.112476 -6.1077371 1.1558461
49.814606 -6.4768171 1.239743
50.109547 -6.4546165 1.2610421
60.18367 -6.4421034 1.4506267
13.325655 -5.5812426 1.4111688
14.385701 -5.7534456 1.3742182
34.719868 -5.6446433 1.2563524
35.382725 -5.5055499 1.1883676
35.735149 -5.5449748 1.165508
45.656284 -5.9109449 1.1672623
46.732811 -5.828773 1.274289
47.326145 -5.9337215 1.0105056
47.760315 -5.7471919 1.2608817
48.292587 -5.7988811 1.1265939
48.59544 -5.9382095 1.4359983
78.321121 -5.7791009 1.2426941
13.664753 -5.4076424 1.3914928
14.215462 -5.2601624 1.3641506
34.187149 -5.0770073 1.2447478
34.709553 -5.2349062 1.2152832
35.301884 -5.1381445 1.4065689
35.655872 -5.2771344 1.2989407
36.314831 -5.2419958 1.0883067
46.853828 -5.4882879 1.498467
47.734287 -5.2643008 1.2768253
51.240311 -5.0416036 1.2519398
14.397458 -4.8630886 1.3433838
34.150696 -4.8352985 1.2250055
34.744713 -4.7748241 1.3564107
35.180241 -4.8490219 1.3742321
35.57531 -4.5440159 1.3522612
36.263443 -4.8436508 1.3169774
36.612446 -4.7675028 1.2713145
49.807926 -4.5075479 1.4293315
60.912762 -4.7626972 1.4289366
12.857288 -4.2291923 1.3857769
13.339188 -4.1543627 1.3636472
34.641796 -4.2379632 1.2251811
35.336826 -4.2129574 1.3399662
35.643467 -4.0049953 1.2794135
43.946476 -4.1470265 1.257691
44.066521 -4.0984888 1.238344
44.915371 -4.1530147 1.2799087
45.066418 -4.1360035 1.2484462
49.799358 -4.3697867 1.2495695
62.393745 -4.0151682 1.4937085
13.379892 -3.9529669 1.3556253
27.732269 -3.5525913 1.2675369
33.382099 -3.7168369 1.2013742
34.851746 -3.6841803 1.0562445
35.340935 -3.6523683 1.1576611
35.719204 -3.6992276 1.3553516
36.116497 -3.768117 1.447167
38.116535 -3.5237336 1.1427193
38.76133 -3.824764 1.2274637
44.804852 -3.9844368 1.4461473
50.213905 -3.5503895 1.3999376
52.720833 -3.774503 1.3084681
13.919266 -3.0851476 1.3068554
20.851614 -3.2794549 1.0279051
27.773487 -3.3035946 1.2529185
33.810478 -3.2943287 1.1260281
34.497406 -3.0169458 1.0361044
34.822174 -3.2124202 1.0195681
35.26664 -3.1984043 1.2370627
35.904137 -3.2306266 1.4064893
36.063053 -3.200454 1.3781837
37.981575 -3.4555943 1.3434393
38.103561 -3.4456232 1.3057672
50.205173 -3.4938734 1.3946273
62.928619 -3.0565908 1.4953399
9.9014912 -2.8047719 1.4648302
13.959366 -2.7858875 1.2963393
14.054009 -2.9215214 1.2964268
34.218937 -2.6061051 1.0343676
34.632618 -2.775995 1.2795167
35.411427 -2.7761202 1.200171
35.770748 -2.7400455 1.2981393
36.278919 -2.7049651 1.1982391
36.555904 -2.6858406 1.3687222
48.550598 -2.5506368 1.1215549
62.927666 -2.9117785 1.4907022
34.782936 -2.2108116 1.3356266
35.169334 -2.213886 1.2801107
35.642807 -2.390532 1.1369898
36.213821 -2.3650088 1.3568885
47.433746 -2.209451 1.3346734
47.50441 -2.1557491 1.4228169
48.668808 -2.3942387 1.2710561
34.408264 -1.7442467 1.2285794
34.685375 -1.8157082 1.2599249
35.009537 -1.7743356 1.3984714
51.92614 -0.92849815 1.4703693
86.845688 3.4278417 1.261131
87.338715 3.3007388 1.2778194
87.56398 3.1542575 1.2874126
88.925621 3.724432 1.3130926
31.619171 4.4791784 1.1838253
32.494087 4.4802175 1.0944238
33.957714 4.2485805 1.2462856
34.243465 4.3330607 1.2655613
54.295753 4.4157662 1.2585002
55.273041 4.3652592 1.3507699
87.064148 4.2312236 1.2496215
88.12336 4.1572394 1.2810178
14.086531 4.9363732 1.1206532
31.361298 4.5201569 1.2113184
31.739799 4.666657 1.1759845
32.215443 4.7240462 1.2007444
32.763733 4.6703386 1.2829797
33.091415 4.7174225 1.0415365
33.850235 4.6963944 1.2823596
34.407902 4.6507039 1.2389978
34.86264 4.6377778 1.4383081
35.239571 4.8400249 1.2904931
35.644428 4.8539543 1.1532484
53.944782 4.668591 1.2266065
54.090813 4.6966009 1.2404566
84.48703 4.8432417 1.1639559
84.578506 4.6333513 1.1710436
87.355103 4.5771108 1.2502719
87.737686 4.7823486 1.2565743
7.4382668 5.3074164 1.3880955
14.142415 5.1247125 1.1156107
31.16478 5.4231033 1.2545125
32.791714 5.2020202 1.086944
33.990181 5.4540515 1.3087845
34.127651 5.177886 1.2748518
34.993713 5.4206882 1.4858098
35.271809 5.2558393 1.3520485
35.741283 5.210012 1.2724555
36.068336 5.4346595 1.1699653
44.226269 5.4238019 1.0593295
44.917854 5.4308424 1.3523884
45.426239 5.3547072 1.1873571
45.6698 5.3591104 1.2837063
46.129612 5.2519226 1.0338105
46.644218 5.395472 1.2770528
54.7187 5.2887745 1.3025554
85.697205 5.2794704 1.1885831
33.097412 5.6661153 1.4313688
33.83252 5.5206633 1.3321481
34.339741 5.8117986 1.291055
34.873936 5.8839846 1.2352279
35.101456 5.8323665 1.2360882
35.797989 5.7923255 1.4117131
36.291542 5.6770391 1.1481278
36.715752 5.8346519 1.1134539
37.182625 5.9045882 1.2186114
37.745216 5.8072228 1.2751281
38.210575 5.7662168 1.3089674
38.753357 5.9474916 1.2699467
39.162182 5.9733911 1.3030237
40.836857 5.9094777 1.2641382
41.256451 5.8315525 1.3015702
41.827267 5.8960757 1.2642312
42.177551 5.9223952 1.2090191
42.59832 5.9781952 1.2358228
43.01437 5.9971943 1.2634636
43.973057 5.6508827 1.2775165
44.27887 5.734314 1.1965078
44.749001 5.6987796 1.2659118
45.248936 5.6531024 1.2792337
45.604671 5.6492605 1.2142392
46.328659 5.7105789 1.3535975
46.630959 5.691381 1.3021659
47.203953 5.6695938 1.4764005
53.760788 5.6613059 1.2179459
54.817829 5.5344043 1.3136212
55.161953 5.9625149 1.3491887
80.687935 5.7551651 1.0380527
84.524437 5.6727533 1.1473154
85.138046 5.5942245 1.1661894
85.607742 5.5026002 1.1813133
22.082657 6.4499922 1.4981586
35.258766 6.0881701 1.2090217
35.741222 6.1829538 1.3578479
36.237576 6.1462202 1.1683167
36.809414 6.0789475 1.1417384
37.296638 6.2742214 1.2097503
37.636677 6.3608994 1.318211
38.276161 6.2491164 1.2451713
38.759949 6.1118479 1.3228503
39.274067 6.3853955 1.3541325
40.319897 6.1810174 1.3691114
40.692829 6.1262517 1.2227744
41.228294 6.1251779 1.1645091
41.686314 6.0869799 1.2234174
42.265514 6.1479292 1.2890439
42.748047 6.1959972 1.2712697
43.234417 6.2577276 1.2067816
43.798737 6.322001 1.30706
44.168674 6.2203317 1.2940773
45.498703 6.0484843 1.0448152
45.591228 6.4508204 1.0974693
53.927044 6.196589 1.2397851
54.083755 6.453198 1.2575182
55.773918 6.0483193 1.4062296
56.186283 6.3692479 1.4471736
80.258606 6.3840265 1.0129727
80.677528 6.170301 1.0291151
86.660034 6.094717 1.1982814
22.155958 6.7364736 1.4937567
37.225193 6.836576 1.1625974
37.590229 6.7273521 1.2538662
38.717331 6.6857595 1.277431
39.286079 6.7634301 1.3034601
39.665733 6.7795439 1.2585503
40.154881 6.7235169 1.2923979
40.613037 6.5098619 1.3266244
41.211678 6.5395994 1.3224418
42.370968 6.5761046 1.1235962
42.656216 6.6416101 1.2039652
43.385941 6.5519819 1.3996687
43.726242 6.6303935 1.2045764
44.241943 6.7737346 1.0914662
45.783455 6.6047449 1.1330318
54.188255 6.830821 1.2728195
55.550545 6.7268782 1.393272
56.272141 6.9633918 1.4615793
22.364725 7.1777539 1.4806916
22.729565 7.2279596 1.4548219
37.380165 7.0613165 1.1061175
38.129303 7.227489 1.3479164
38.675888 7.2317634 1.2223868
39.17482 7.074008 1.1252629
39.787739 7.0965366 1.3108824
40.260941 7.0664167 1.3286057
40.697113 7.2388802 1.2191305
42.979816 7.0880494 1.3167107
43.247921 7.1624217 1.0126193
43.518856 7.3351326 1.0484307
44.375065 7.2757478 1.0927833
45.568932 7.1356163 1.1715813
55.441681 7.3241172 1.3920652
80.917496 7.4648023 1.0093242
81.343506 7.3985653 1.0225512
81.638412 7.1704392 1.0354193
6.5956688 7.679244 1.3887053
22.333399 7.7600822 1.4867361
22.928982 7.6834507 1.4438952
23.003933 7.7631869 1.4392672
45.633263 7.5559301 1.2252363
46.092186 7.9476047 1.3108559
54.14497 7.7394266 1.2860341
54.841412 7.7833295 1.3472656
55.195641 7.64675 1.3757294
60.827606 7.8265162 1.1665058
61.441132 7.8270245 1.2031497
81.605896 7.7254057 1.0232692
84.517914 7.5040736 1.1090477
85.007339 7.8963227 1.1147246
39.676464 8.1809511 1.4083303
41.623119 8.4693584 1.4300977
44.322659 8.3810596 1.2276711
83.624207 8.2467747 1.0690588
6.6391068 8.9478531 1.3719932
41.793282 8.6023359 1.4547827
46.333267 8.5420275 1.0673658
58.033455 8.6475372 1.0008276
61.749512 8.9139462 1.2172381
5.1501122 9.115551 1.4300454
6.6457367 9.0757513 1.3703434
40.617859 9.2873697 1.2510877
33.590885 9.7128057 1.2635299
39.059731 9.8320751 1.353639
40.900661 9.8100014 1.3195666
41.066124 9.7940779 1.3173277
42.818623 9.9942703 1.0293233
55.427937 9.9016457 1.44569
55.778347 9.7146454 1.4702113
56.02969 9.8525553 1.4946023
38.83252 10.455161 1.4410766
39.772858 10.329711 1.0432692
40.650017 10.00501 1.0051184
42.705982 10.116436 1.0386832
54.719276 10.279384 1.3983046
55.367054 10.255017 1.4502381
55.54739 10.093446 1.4606384
40.387913 10.769853 1.4507204
40.685471 10.870364 1.4623646
41.184559 10.683933 1.4371531
41.899418 10.81876 1.4617
54.203205 10.733714 1.371286
54.881287 10.912764 1.4303868
55.113178 10.835654 1.4464698
14.965309 11.117376 1.0288935
40.460308 11.442003 1.1471343
41.01667 11.113732 1.4945163
53.88435 11.205615 1.362361
54.33559 11.293369 1.4000241
31.897989 11.893529 1.002439
39.511024 11.904892 1.1993384
40.151051 11.697197 1.1734796
40.564964 11.722871 1.1746323
54.488132 11.581197 1.4214613
54.704906 11.558021 1.4374
31.914658 12.033096 1.0077382
54.578651 12.305822 1.4536875
60.110683 12.615572 1.1294312
37.883015 13.475751 1.3789136
60.283981 13.869034 1.1469215
58.855408 14.349959 1.0762413
29.008266 14.979027 1.2686285
30.949255 14.626245 1.1668504
31.501268 14.596209 1.1427722
40.064362 14.596306 1.4588422
43.076283 14.664412 1.4956067
43.816628 14.576862 1.0023943
59.760509 14.773064 1.1269715
5.441864 15.238873 1.374387
11.833965 15.497726 1.137563
12.093273 15.496318 1.1282265
59.456276 15.148873 1.1149648
10.352182 15.567374 1.1912736
10.626968 15.574919 1.1812664
11.256985 15.524117 1.1584122
11.538557 15.51542 1.1482276
20.74337 -21.749508 1.9472508
21.154465 -21.695322 1.9335866
20.74184 -21.372543 1.9241667
19.021709 -20.245728 1.902759
75.788742 -18.02532 1.5289081
38.052216 -17.132273 1.9968847
37.942284 -16.767859 1.9579302
38.202866 -16.551929 1.932503
38.324284 -16.297972 1.9040027
38.624817 -16.300095 1.9025044
40.080341 -15.539001 1.8165604
40.257 -15.456604 1.8079202
41.399323 -13.649809 1.6144297
41.741993 -13.82676 1.6375631
42.195312 -13.433814 1.599704
43.243729 -13.041943 1.5746945
44.098007 -13.159971 1.6078635
47.056992 -13.265536 1.722218
42.432987 -12.54348 1.5045389
43.190903 -12.661789 1.9986299
44.170525 -12.891916 1.5804296
83.060051 -12.663935 1.5626922
94.571556 -12.738648 1.8816673
13.120328 -12.401774 1.689836
43.099518 -12.465143 1.9677165
44.322685 -12.274546 1.9771097
83.091896 -12.435719 1.557057
94.486023 -12.341111 1.8683892
94.599869 -12.080443 1.8644131
45.966003 -11.785626 1.9799128
83.401947 -11.75331 1.546237
9.9862471 -11.303715 1.7609658
41.480366 -11.094413 1.7397481
41.78183 -11.204954 1.7592646
42.238541 -11.082286 1.7480726
42.736618 -11.095581 1.7595677
43.287491 -11.351562 1.8105183
45.535267 -11.080417 1.8594049
65.582161 -11.142409 1.9757107
9.2674866 -10.803972 1.7682302
10.053574 -10.655702 1.7317331
40.847412 -10.687506 1.6768363
41.229374 -10.865645 1.7044674
42.440746 -10.913943 1.7268137
42.692631 -10.672812 1.6968337
43.386852 -10.912466 1.7495896
43.610397 -10.920175 1.7575269
44.937485 -10.989223 1.8182087
45.436974 -10.599825 1.787185
65.683609 -10.93697 1.9721541
93.955116 -10.672833 1.8083644
97.268967 -10.868747 1.9057803
42.111115 -10.095031 1.9780579
42.626053 -10.469599 1.6656673
43.865414 -10.457936 1.6992707
44.573383 -10.417047 1.721017
41.784798 -9.8270903 1.5574129
42.212231 -9.6350079 1.6864711
42.614803 -9.7128439 1.9194717
43.697784 -9.5665321 1.9300104
97.242134 -9.6663427 1.8730674
36.698753 -9.3462534 1.969642
42.297886 -9.4579954 1.8065461
42.613297 -9.4109821 1.8645438
43.302719 -9.2374287 1.855211
43.566872 -9.452632 1.9041271
44.416012 -9.3770828 1.9309443
44.665527 -9.4063787 1.949947
50.023632 -9.4311037 1.507618
23.492081 -8.6137486 1.8484094
23.802193 -8.6531639 1.82998
25.876366 -8.919384 1.7105249
26.38797 -8.9038343 1.6765831
26.56683 -8.7227488 1.6526612
27.311434 -8.5487928 1.5931153
42.836609 -8.9583569 1.7889528
43.10675 -8.8871031 1.7848144
43.70451 -8.6420527 1.7650191
45.739475 -8.603694 1.7834812
48.898659 -8.7321882 1.7829727
53.331009 -8.7414656 1.6947682
53.630638 -8.6290636 1.7101381
55.853943 -8.5691309 1.8898327
56.272598 -8.7626772 1.9389265
56.737274 -8.7678213 1.9788961
61.424404 -8.7150202 1.6228933
23.813236 -8.1819124 1.7999473
27.498394 -8.2987928 1.5638398
39.884773 -8.1019497 1.6180065
40.384724 -8.1287231 1.6142817
43.044018 -8.2998199 1.9967877
45.265987 -8.4192028 1.8173463
47.441933 -8.4284735 1.624983
53.642403 -8.3418026 1.6893482
54.150707 -8.2041206 1.7209504
54.627792 -8.0494156 1.7495198
55.867989 -8.4085732 1.8797936
61.277142 -8.4813299 1.6037302
62.072502 -8.37533 1.6456943
97.985893 -8.2045383 1.8555915
98.06459 -8.2165699 1.8581109
20.883478 -7.6616702 1.9733763
21.267117 -7.7586493 1.9516689
23.713215 -7.9638343 1.7934506
24.354761 -7.7391438 1.7359792
27.920399 -7.8083744 1.5030622
28.103336 -7.9893365 1.5038288
35.431564 -7.8485126 1.8249664
35.706665 -7.6589227 1.7732669
36.560772 -7.5241766 1.6849158
38.793995 -7.6981893 1.893241
39.352276 -7.5474801 1.5341806
39.556374 -7.6246347 1.5413471
40.199245 -7.8075914 1.5592461
47.1036 -7.7325587 1.8616644
47.659412 -7.6945891 1.5512234
54.33049 -7.9818258 1.7197407
54.680347 -7.9562516 1.7473326
57.398182 -7.8229465 1.9735098
20.696934 -7.3574057 1.9700496
21.009777 -7.4470582 1.9526446
22.031284 -7.4535742 1.8807361
23.481905 -7.0948949 1.7585392
23.600348 -7.2180176 1.7573266
24.432936 -7.2689514 1.7024006
29.475506 -7.2997637 1.8783391
33.763382 -7.3706322 1.5170234
36.743393 -7.2685676 1.6313149
37.290787 -7.3050666 1.6178637
37.794651 -7.209559 1.675087
38.325069 -7.1906872 1.5171044
38.719948 -7.2887864 1.6200793
39.174423 -7.4292517 1.5197653
39.869534 -7.1565228 1.7050023
40.255695 -7.2987576 1.7511647
40.643688 -7.2334385 1.8301638
45.153034 -7.116416 1.8898222
46.187187 -7.1137743 1.676265
46.852757 -7.2399654 1.7601918
48.794022 -7.3062129 1.6065099
50.298046 -7.144989 1.7378161
50.7985 -7.3324752 1.8092568
55.29554 -7.1284165 1.7436348
63.295998 -7.1327591 1.6659939
35.824421 -6.7540855 1.7367902
36.238331 -6.6355815 1.6553437
36.932819 -6.8512177 1.8025618
37.259075 -6.8117318 1.8055995
37.682228 -6.8977256 1.8074754
38.307308 -6.6938596 1.8227868
38.691189 -6.6349378 1.7482977
39.388111 -6.7792921 1.7218659
39.696735 -6.8914042 1.7550406
40.254608 -6.7780499 1.9088023
40.580414 -6.8404708 1.9151384
43.776382 -6.7206402 1.8577405
44.524361 -6.5412216 1.9945688
45.762825 -6.7566972 1.6390209
46.220264 -6.7995467 1.7331804
46.520313 -6.9087124 1.6756847
47.439713 -6.7881565 1.7534558
48.124748 -6.9841914 1.507241
49.976658 -6.5636044 1.6440678
50.070377 -6.5425053 1.6517727
55.375195 -6.9910069 1.7416029
63.435635 -6.6313705 1.6543514
63.553658 -6.8346243 1.669561
34.824047 -6.0361528 1.964555
35.280197 -6.2432666 1.7599206
35.784519 -6.3635879 1.8105737
36.441978 -6.1848764 1.7172918
36.79134 -6.1057229 1.7425319
37.798637 -6.448566 1.7104648
38.459 -6.3164668 1.906381
38.742401 -6.3529186 1.8915313
39.228687 -6.4485564 1.8783191
42.326981 -6.1746125 1.8019855
42.616184 -6.0599475 1.805456
43.466957 -6.4245586 1.8763428
43.729736 -6.428165 1.8972749
44.236462 -6.3945775 1.9320557
44.628845 -6.3056302 1.9495699
45.828323 -6.4301553 1.8246561
46.280327 -6.3183036 1.6209371
46.730694 -6.0969334 1.5737029
47.23671 -6.0767508 1.6272149
47.691463 -6.0743408 1.6796227
50.243786 -6.2687349 1.690037
50.640095 -6.0409627 1.6638752
34.499043 -5.9816766 1.9990495
34.786018 -5.9452739 1.9552753
35.105606 -5.9970942 1.9219207
35.840092 -5.6381354 1.7713094
36.394714 -5.8524513 1.7414867
36.934261 -5.8165989 1.6753622
38.635944 -5.6574311 1.9910887
39.334969 -5.6355648 1.6748857
39.718098 -5.6043139 1.8786771
42.419621 -5.9578953 1.8619105
42.6539 -5.8629832 1.9020884
46.408989 -5.65555 1.7204385
46.758816 -5.7242389 1.6322465
47.126736 -5.8039041 1.8442986
47.670361 -5.6744528 1.6217737
48.397163 -5.7654481 1.7248781
48.695557 -5.6959352 1.7544805
50.150459 -5.7506819 1.9578211
51.356049 -5.7463551 1.7173488
51.5564 -5.8453836 1.7491074
34.456284 -5.069716 1.5434284
38.630207 -5.0941105 1.6692383
39.285912 -5.2124653 1.8060261
39.769146 -5.1771517 1.6454989
46.88361 -5.4804196 1.5007935
47.067162 -5.3964353 1.7983979
47.783901 -5.4092193 1.6000756
48.338356 -5.4272981 1.9951073
50.051525 -5.3036146 1.8923352
50.635372 -5.138515 1.9032508
51.210072 -5.0208716 1.6372104
2.7845192 -4.8996778 1.8208176
35.640182 -4.7619567 1.7332621
36.040192 -4.6988297 1.5955479
38.63134 -4.9146085 1.6988156
39.622837 -4.958065 1.7065195
51.097416 -4.8252273 1.7029998
52.286926 -4.6862926 1.7392124
92.163177 -4.6453238 1.6016154
35.987045 -4.090127 1.7767754
36.259663 -4.0802121 1.729396
43.974049 -4.1530061 1.5667087
44.063171 -4.0917144 1.5626117
44.943989 -4.2779965 1.5290297
45.133335 -4.2516699 1.5512068
46.403454 -4.0809345 1.9718088
49.886856 -4.3979936 1.7700895
62.438347 -4.138555 1.500723
63.341782 -4.0989695 1.5553901
63.514923 -4.0155377 1.5633121
92.181847 -4.2855029 1.5931597
32.917591 -3.5383096 1.5761155
35.486656 -3.756602 1.5382913
35.852528 -3.6127245 1.6562963
36.212299 -3.7356048 1.7718788
38.780029 -3.849267 1.5090054
49.946674 -3.6176913 1.7021141
50.226105 -3.5820239 1.741937
52.603603 -3.9139287 1.7220229
63.614113 -3.77807 1.5615685
91.755501 -3.7201235 1.5671453
20.858458 -3.181102 1.7649082
27.873186 -3.2080445 1.7443182
34.477921 -3.1038151 1.9102476
34.528759 -3.0328379 1.8913627
35.952179 -3.4801664 1.9415231
36.299305 -3.2310741 1.7414778
37.957649 -3.3999538 1.5345619
38.010941 -3.2982426 1.5031462
47.804199 -3.2253437 1.8617405
50.335739 -3.4941735 1.7509768
92.161148 -3.0651639 1.5624342
92.792984 -3.3639231 1.5875381
6.8301482 -2.6287165 1.5872039
34.3983 -2.9222012 1.6116823
34.652027 -2.9117901 1.8520607
35.486271 -2.5077209 1.8911122
35.958927 -2.81142 1.5854762
36.172215 -2.7079463 1.7002556
47.313404 -2.756067 1.8235024
48.719475 -2.6411693 1.8763467
49.940529 -2.822912 1.9534492
50.171387 -2.7532594 1.7858802
52.952488 -2.5297658 1.6810204
53.145615 -2.6234243 1.7112356
63.507393 -2.9241633 1.5273541
92.092072 -2.7776299 1.5534644
-0.14880498 -2.2145774 1.8658775
33.424831 -2.4202504 1.7285585
33.833652 -2.0844529 1.6290157
34.373795 -2.2607334 1.6940877
34.947823 -2.2637241 1.9852988
35.201668 -2.1469676 1.8146806
35.630627 -2.2784033 1.6624541
36.221878 -2.3707337 1.6771905
46.965576 -2.3487282 1.7866489
47.202995 -2.340595 1.7409649
48.742352 -2.4812548 1.6908938
53.130009 -2.4273758 1.6985805
59.89629 -2.4280553 1.934538
60.075218 -2.1928599 1.9434463
92.258743 -2.2564411 1.5454907
34.148972 -1.926598 1.5610218
35.166115 -1.7393683 1.6709824
35.52206 -1.636327 1.7739912
59.985291 -1.7928784 1.9207046
60.138123 -1.8921196 1.939037
34.924377 -1.2526634 1.8141342
35.053246 -1.4091032 1.8146404
51.801991 -1.1957519 1.8317264
51.768047 -0.97546566 1.8156564
20.013147 4.4503374 1.656811
33.365456 4.242578 1.6513975
33.827782 4.3000064 1.7646807
34.198746 4.380559 1.7078314
35.119617 4.4465842 1.9446956
19.952654 4.7797837 1.6591306
20.086367 4.5939183 1.6503004
31.266094 4.7814713 1.6270199
31.809156 4.672133 1.713063
32.046516 4.5919485 1.5146005
33.131577 4.5766578 1.7096004
33.937248 4.8702364 1.5999248
34.295864 4.6022816 1.6967092
34.680485 4.7097697 1.7690406
35.312767 4.7470274 1.8058643
35.816158 4.9379134 1.6390201
36.01767 4.9978337 1.8302991
55.164871 4.9883757 1.845805
56.302551 4.9232588 1.9901912
32.532871 5.1459627 1.843015
35.387787 5.1469002 1.809418
35.825871 5.1631083 1.7535098
36.063633 5.2465496 1.6355534
38.204922 5.4457469 1.5315747
45.052498 5.3329163 1.5749097
53.787048 5.4063873 1.6805484
54.839672 5.2285776 1.8088948
55.341259 5.2346826 1.8723156
56.292236 5.0602536 1.9906707
0.72045773 5.6873817 1.6587738
34.962589 5.742156 1.5207484
35.875694 5.5626831 1.9417675
36.28326 5.7360663 1.7191652
36.556034 5.997118 1.6128498
37.212986 5.9740114 1.5838912
37.720417 5.822978 1.6744484
38.253979 5.686388 1.5727124
38.762024 5.9247961 1.5587518
44.28233 5.9285879 1.5873687
44.72303 5.8167024 1.6230478
45.224018 5.6898489 1.6484762
45.831982 5.7414374 1.5366673
46.230022 5.7425551 1.7663416
46.69051 5.7530384 1.7155966
47.169861 5.7347732 1.7569976
53.633484 5.6396456 1.6671972
54.767887 5.5510521 1.8061454
55.392765 5.5492535 1.8845619
56.105934 5.8173933 1.9795835
-7.2582645 6.1101451 1.9811269
20.672558 6.3279891 1.6011556
21.107635 6.4367871 1.5693384
32.083992 6.2421331 1.591134
36.263664 6.1090665 1.9313055
36.663807 6.1146345 1.7661334
37.251579 6.1738443 1.7004232
37.697834 6.2099853 1.6665996
38.770229 6.2808261 1.6348835
39.091892 6.3610749 1.6191101
40.171597 6.235383 1.5090102
41.824047 6.413662 1.5208731
42.857998 6.2463574 1.5230678
43.120667 6.2660303 1.5461217
43.933201 6.2947307 1.6274506
44.157154 6.0986581 1.6094599
44.704029 6.0768971 1.6750256
45.143173 6.2787151 1.7793684
45.736542 6.1292686 1.5840981
46.203323 6.117836 1.9213532
46.701183 6.0959539 1.7284187
54.501862 6.3418694 1.7926891
56.023861 6.0994892 1.9750632
16.202723 6.8279953 1.9304909
16.582239 6.9279618 1.9022367
21.196779 6.5673752 1.5630101
21.789333 6.9565792 1.5210623
31.696491 6.8393717 1.6749532
33.919044 6.8158035 1.7724135
34.631172 6.8283615 1.6770582
36.496918 6.555645 1.7045261
36.604462 6.5992336 1.6966373
37.316639 6.5035982 1.5894022
37.643375 6.7131972 1.770039
38.192284 6.7634163 1.8021289
38.681355 6.7767081 1.751824
39.344326 6.8721509 1.7122568
39.730717 6.6630063 1.6355088
40.635017 6.5062323 1.5520698
42.194633 6.5157475 1.555346
43.438541 6.7088523 1.6751378
43.746655 6.7825117 1.7201339
45.229282 6.544446 1.8468566
53.687901 6.9591613 1.7140115
54.184158 6.8646846 1.770045
54.591499 6.906054 1.8203795
55.588863 6.7867622 1.9381509
16.68787 7.0401335 1.8943046
17.152298 7.0932379 1.8600297
19.430107 7.1837029 1.6931264
36.383217 7.4373965 1.5396345
37.366112 7.4110332 1.736226
37.6059 7.3448162 1.9935805
38.805344 7.1751075 1.6481105
39.153202 7.1855502 1.7485785
39.640106 7.2376976 1.6643862
43.760132 7.2213621 1.6944749
44.106163 7.4666324 1.9112267
46.975941 7.2771592 1.9534158
53.725403 7.0315318 1.7210182
54.409069 7.1794357 1.8074697
54.643349 7.017365 1.8301687
55.595825 7.1108747 1.948276
22.125282 7.7225375 1.5012488
34.840046 7.6692009 1.7450404
39.622574 7.7100477 1.6073883
40.139961 7.7383971 1.8650154
40.887932 7.6521959 1.5543281
41.754356 7.7264361 1.5697541
43.947083 7.6850576 1.6659822
44.119083 7.7515011 1.9777443
59.669937 7.8965745 1.781736
36.443214 8.3975592 1.6633689
39.339813 8.053134 1.6902088
39.728878 8.3302326 1.7257285
41.102215 8.3563938 1.9893498
40.215141 8.9778252 1.5249592
41.650654 8.5419321 1.7368801
37.138577 9.286356 1.731436
37.83284 9.0354195 1.642978
40.431519 9.3878345 1.5898808
36.828419 9.9761124 1.8582652
37.292225 9.7382708 1.7880937
37.904728 9.773531 1.7527312
39.336254 9.9255152 1.7076433
41.930305 9.9756317 1.6907375
56.256081 9.6399097 1.5086466
36.904949 10.069477 1.8664548
56.216461 10.191379 1.5187062
36.912292 10.66767 1.956442
37.158287 10.896372 1.9747481
37.541748 10.776672 1.533378
40.545002 10.986429 1.8585129
41.188663 10.560541 1.7837019
42.043533 10.863464 1.8438296
54.744904 10.562959 1.9926573
55.891041 10.931627 1.5119382
58.129131 10.666933 1.6913273
58.524605 10.670116 1.7251309
60.16946 10.560255 1.8652688
35.174198 11.467061 1.7548484
40.199326 11.206342 1.9001772
40.914337 11.266062 1.5149121
41.111809 11.410757 1.5346274
41.732639 11.172394 1.8918427
53.840221 11.327438 1.9396933
54.289173 11.215076 1.9796261
58.93536 11.007189 1.7677161
33.604282 11.60382 1.8885219
34.692299 11.568936 1.8005216
35.205711 11.501593 1.7565727
42.052223 11.612286 1.7697058
42.815514 11.63169 1.5899801
55.457756 12.808439 1.5378879
55.549133 12.759897 1.5431352
41.787003 14.605062 1.9699724
42.916981 14.606396 1.9909619
43.018921 14.630748 1.9968069
1.6036644 15.042596 1.5217174
32.532402 15.009078 1.7291815
-7.7071495 18.249041 1.8631473
16.570921 -24.302036 2.2107198
16.688334 -22.214073 2.0835843
38.456966 -20.18158 2.3292251
38.773754 -19.311024 2.2327695
39.239376 -19.165085 2.216244
38.36821 -18.840321 2.1821997
106.39222 -18.206879 2.3597839
37.704762 -17.558662 2.0459847
38.375145 -17.773325 2.0651357
106.46851 -17.984108 2.3556244
98.430183 -16.97386 2.1063592
98.844559 -14.331288 2.0436926
99.368507 -14.251699 2.0559702
43.441006 -13.534077 2.1320646
43.523102 -13.782782 2.1704299
45.942249 -13.92437 2.2792799
69.468842 -13.743575 2.3213637
69.568085 -13.671563 2.3236818
46.902882 -13.300091 2.2402496
69.621384 -13.332739 2.3109202
72.252991 -13.199449 2.4580865
43.286835 -12.878414 2.0326176
44.107056 -12.593787 2.0156357
46.428619 -12.812138 2.14709
46.772152 -12.868547 2.1734567
47.117367 -12.78548 2.1814373
101.51707 -12.821817 2.0764186
44.204224 -12.483401 2.0030124
46.843266 -12.026945 2.0614874
72.248199 -12.448925 2.424648
42.067966 -11.567534 2.2456648
45.256153 -11.959884 2.4319687
46.895584 -11.97496 2.0574241
65.884766 -11.654172 2.0169716
70.340828 -11.529373 2.2718267
72.86142 -11.629599 2.4258578
29.464626 -11.149567 2.2618895
40.967316 -11.125968 2.1553707
41.252563 -11.283705 2.1851947
41.651844 -11.370021 2.2041657
43.185093 -11.256349 2.2157485
43.703655 -11.25108 2.232811
44.616207 -11.07288 2.2414081
70.375687 -11.361818 2.2666245
70.52227 -11.245722 2.2703078
73.254539 -11.089183 2.4268062
41.367226 -10.573751 2.0563493
41.821224 -10.729894 2.4937747
42.126339 -10.601402 2.4707646
42.898968 -10.786563 2.1220443
43.079895 -10.747269 2.1202505
44.439091 -10.874105 2.1973276
73.125603 -10.865227 2.4098458
42.307129 -10.108321 2.3668361
45.466938 -10.15301 2.1289537
71.841949 -10.230141 2.306659
42.823647 -9.7723675 2.3081439
44.178181 -9.9680119 2.0235264
44.840782 -9.7277946 2.0164232
45.417248 -9.9011765 2.0821855
71.696205 -9.767683 2.2791505
73.988838 -9.7883263 2.4188361
53.372265 -9.1060066 2.2616327
53.653053 -9.1235647 2.2933314
14.29812 -8.5527172 2.4923882
15.930767 -8.7655649 2.3857942
16.047745 -8.877903 2.3833847
17.632526 -8.634798 2.2572942
26.674107 -8.5647297 2.2522924
42.937717 -8.7674074 2.0938582
43.278198 -8.7039642 2.2077897
43.752258 -8.7478476 2.1274798
44.242847 -8.759551 2.1588373
44.718498 -8.6918793 2.1771166
53.079262 -8.7016087 2.1897111
61.414589 -8.7446899 2.389564
61.798664 -8.6242933 2.4170878
74.068054 -8.7772226 2.3848381
14.200533 -8.3754568 2.4905295
26.355455 -8.4709377 2.2744918
39.627388 -8.0068512 2.2399757
42.435448 -8.4849195 2.3450832
43.187923 -8.311286 2.1137817
43.773514 -8.2588615 2.353025
44.932907 -8.3877335 2.1300225
45.244797 -8.3116846 2.1401868
45.510509 -8.4890156 2.1990085
46.726105 -8.3360977 2.2886324
47.138489 -8.3667097 2.3403337
53.24081 -8.193594 2.1571312
53.621616 -8.0585146 2.1861153
54.309753 -8.3170929 2.2871976
59.833332 -8.3203993 2.2215147
61.839245 -8.3910475 2.4070361
62.48024 -8.2464962 2.4572079
75.754456 -8.240304 2.468509
13.890512 -7.7894187 2.4843194
14.090672 -7.9384446 2.4769127
27.317513 -7.7800193 2.1238818
28.100121 -7.6475635 2.037991
39.310551 -7.6120086 2.2624319
39.555931 -7.7833042 2.1876514
42.90321 -7.8328638 2.3526001
43.295658 -7.7679925 2.2012405
43.561798 -7.9629931 2.2656362
46.296478 -7.8843107 2.1552825
54.037777 -7.8175797 2.2103608
76.149498 -7.6514854 2.4718065
14.69524 -7.356564 2.4046271
38.754463 -7.0185533 2.0487528
39.487778 -7.2184176 2.2015848
39.741318 -7.2164364 2.2569666
40.114044 -7.2148476 2.3147209
45.777321 -7.0915613 2.2620249
46.474266 -7.0653892 2.018528
46.604671 -7.1332097 2.2141643
49.098461 -7.3057542 2.4083922
36.475842 -6.6113453 2.1870158
36.583065 -6.6288743 2.1772459
37.266403 -6.6536994 2.1568868
37.849926 -6.7271886 2.0999959
38.122959 -6.825551 2.1431727
38.635265 -6.872129 2.0226152
39.435234 -6.9041862 2.2630665
39.986549 -6.6065407 2.1460524
40.300133 -6.587606 2.126756
40.673973 -6.6790128 2.1406765
43.696671 -6.5241184 2.1890433
44.429314 -6.5245733 2.2616255
44.925922 -6.8325615 2.1048872
45.195465 -6.6479511 2.1911867
45.797951 -6.6727214 2.1702971
46.165112 -6.6693139 2.2692792
46.554535 -6.8442259 2.3093703
47.126438 -6.7993107 2.3830819
48.246948 -6.6882267 2.1829555
49.062222 -6.9003057 2.337105
-9.5610428 -6.4020166 2.3752756
14.424954 -6.3721581 2.3791647
34.830421 -6.2115211 2.163693
35.012943 -6.1650243 2.3034003
36.297318 -6.2100334 2.4451518
36.69775 -6.2069988 2.2702775
37.328655 -6.425703 2.347558
37.632076 -6.4203763 2.3074279
38.184898 -6.2055111 2.1855147
38.741581 -6.0218544 2.0773392
39.03315 -6.1575284 2.0867612
39.755146 -6.3391089 2.0832376
40.169224 -6.4788237 2.1007628
41.785988 -6.251029 2.0094709
43.750805 -6.3340235 2.1405694
44.239597 -6.3355222 2.1895347
44.679592 -6.2243629 2.2096786
45.734768 -6.3793488 2.3705785
46.203125 -6.2387872 2.4318259
46.760513 -6.1260786 2.2996845
47.196911 -6.3367696 2.2986603
47.926537 -6.4625311 2.0994484
48.289974 -6.223958 2.113209
48.644184 -6.0456443 2.1381481
50.132694 -6.2631836 2.4077182
59.230423 -6.1153049 2.0390511
60.160118 -6.0660849 2.1230142
12.884578 -5.7460837 2.4668977
13.443557 -5.8809652 2.430804
14.437762 -5.9058661 2.3577526
33.91758 -5.7648888 2.0466917
34.993633 -5.6124544 2.2052705
35.198616 -5.6874022 2.1865034
35.528412 -5.8608327 2.167994
36.316319 -5.7867479 2.109612
36.569412 -5.9445205 2.0365045
38.837315 -5.9290848 2.0428925
46.219162 -5.9194307 2.3561449
46.803471 -5.7411132 2.2473216
47.086105 -5.6037254 2.1342928
48.368435 -5.5364389 2.1826458
48.762589 -5.9987521 2.1491404
51.392818 -5.8863196 2.1491091
57.365864 -5.574554 2.4322393
60.288525 -5.892467 2.1260145
60.983784 -5.8637362 2.1898098
61.066467 -5.6816635 2.1884968
63.10363 -5.5001659 2.3727491
12.885219 -5.1200867 2.4412885
13.097486 -5.286562 2.4320922
35.471466 -5.1670065 2.3593397
35.666077 -5.2022729 2.3307445
36.315392 -5.3646784 2.2498147
36.62862 -5.4007587 2.2053902
46.177341 -5.2455282 2.1879148
47.146603 -5.4203892 2.1087701
48.377731 -5.3488626 2.2744601
48.668392 -5.3996968 2.3787134
50.219067 -5.2141905 2.2776299
51.358871 -5.2813272 2.1803641
57.256569 -5.4078054 2.407316
60.659149 -5.1818514 2.1255014
62.915329 -5.0506668 2.3341134
63.119431 -5.4279566 2.3708887
12.663532 -4.9586658 2.4515471
35.783199 -4.6499305 2.1957517
46.264801 -4.9317288 2.1311464
49.882465 -4.5096345 2.128376
