# .PCD v0.7 - Point Cloud Data file format
VERSION 0.7
FIELDS x y z
SIZE 4 4 4
TYPE F F F
COUNT 1 1 1
WIDTH 1540
HEIGHT 1
VIEWPOINT 0 0 0 1 0 0 0
POINTS 1540
DATA ascii
7.9208984 11.287025 -0.17191549
9.537323 11.152045 -0.1783144
11.451496 11.062938 -0.18687047
12.273611 11.041925 -0.19076778
29.109537 11.088626 -0.26885563
54.958229 11.25098 -0.16596535
55.020096 11.282869 -0.16489744
55.606941 11.255137 -0.15341285
56.56316 11.428136 -0.13479786
45.218857 11.762013 -0.28485098
55.931934 12.241579 -0.15070724
55.05661 12.576184 -0.16848302
59.63781 12.912416 -0.075796589
60.814259 12.953887 -0.049337834
48.669075 13.064651 -0.26143652
60.335186 13.436081 -0.063045084
60.943256 13.33739 -0.048660275
24.386425 13.978512 -0.28312537
29.158655 13.833454 -0.29742903
32.25898 13.969631 -0.30640626
45.965485 13.909102 -0.28611839
46.247147 13.91216 -0.28411436
46.601265 13.914446 -0.28147998
58.330116 13.770205 -0.10830961
59.811081 13.666027 -0.075963646
60.399925 13.60919 -0.062551036
60.773041 13.895345 -0.055747703
24.805223 14.034846 -0.28525847
25.064865 14.344914 -0.28949192
29.224731 14.061478 -0.29980117
33.892536 14.486898 -0.31333101
34.234596 14.474655 -0.3136633
34.738548 14.447453 -0.31401968
35.229454 14.428784 -0.31433287
35.595612 14.415618 -0.31451637
36.256203 14.383618 -0.31464404
36.693878 14.357597 -0.31460065
37.21941 14.329719 -0.31446004
37.728394 14.312995 -0.31425595
38.254875 14.289615 -0.31387311
38.569363 14.268867 -0.3135429
39.33498 14.241771 -0.3126232
39.758057 14.216888 -0.31191331
40.215649 14.192418 -0.31103784
40.745022 14.139526 -0.3097364
41.250546 14.145065 -0.30857745
41.691845 14.125713 -0.30730116
42.787079 14.076138 -0.30346963
43.276825 14.051532 -0.3014136
43.572342 14.048199 -0.30012226
46.697784 14.276546 -0.28154206
24.87006 14.913092 -0.29478204
25.185728 14.903867 -0.29573885
25.925192 14.858249 -0.297683
26.212988 14.852047 -0.29853436
26.717234 14.824964 -0.29983282
27.187122 14.797378 -0.30098721
28.374262 14.73884 -0.30384761
28.543192 14.727444 -0.30420548
29.378536 14.680814 -0.30598873
29.76133 14.677329 -0.30691862
30.300177 14.64881 -0.30796611
32.27895 14.559746 -0.3113583
32.730087 14.53938 -0.31198612
33.096001 14.530099 -0.31251258
33.649017 14.504277 -0.31313241
46.71508 14.553688 -0.28201669
59.457916 14.774509 -0.089096598
59.776352 14.698668 -0.081918299
21.791122 15.072577 -0.28553218
22.023108 15.07393 -0.2864123
48.478752 16.103609 -0.26904505
48.645222 16.143158 -0.26740155
46.810341 16.733986 -0.28588611
46.839264 17.268375 -0.28674525
56.852722 17.425583 -0.15069944
57.180992 17.362518 -0.14446715
57.638222 17.431177 -0.13614196
46.853046 17.702024 -0.28751671
57.275375 17.839558 -0.14422594
57.632912 17.832176 -0.13757238
46.873516 18.15353 -0.28825733
56.662075 18.040564 -0.15600456
57.095695 18.29607 -0.14895225
46.906143 18.776581 -0.28922704
46.925484 19.293613 -0.29009062
46.94009 19.655783 -0.29068047
58.513363 19.825481 -0.12764789
59.336666 19.981163 -0.11255468
59.827934 19.687206 -0.10194625
60.282955 19.649103 -0.092801116
46.967781 20.181211 -0.29146862
59.307835 20.099117 -0.11352183
60.788311 20.091463 -0.084425427
61.122223 20.206848 -0.078154057
62.432941 20.493284 -0.052419633
46.995037 20.770737 -0.29237908
56.659859 20.739326 -0.16363834
57.423702 20.737101 -0.15030907
57.626335 20.74213 -0.14671458
62.127327 20.616701 -0.059305415
47.016483 21.185379 -0.29299188
49.218327 21.355997 -0.27071622
49.735027 21.1763 -0.26451483
47.031372 21.615028 -0.29369086
49.433792 21.685019 -0.26888943
47.063271 22.260231 -0.29464185
47.099815 22.982044 -0.29568726
56.940464 22.92201 -0.16463158
57.133457 22.95846 -0.16145796
47.119606 23.471731 -0.29643792
58.977509 23.457989 -0.1305313
47.150814 23.926226 -0.29700601
56.858173 23.944427 -0.16862255
57.018681 23.882547 -0.16579063
57.170082 24.081003 -0.16376092
47.152679 24.638777 -0.29834765
47.154789 25.435568 -0.29984236
49.848145 25.392271 -0.2707907
50.066471 25.455517 -0.26834375
49.894886 25.664549 -0.27074069
50.155552 25.518524 -0.26740044
50.603962 25.708868 -0.26234221
55.267265 26.206654 -0.1992162
56.114021 26.173771 -0.18601349
60.78064 26.419481 -0.10678692
59.285034 27.231625 -0.13597023
59.611008 27.094559 -0.1298757
50.382595 27.866974 -0.26892051
51.200897 27.938704 -0.25900713
50.805115 28.048378 -0.26410854
51.294109 28.110388 -0.25814176
51.666927 28.345953 -0.25384733
50.792492 28.640318 -0.26534468
48.045967 29.732933 -0.298711
47.620552 30.019073 -0.3037045
47.992188 32.504513 -0.30436009
52.47794 36.869133 -0.25912094
52.718502 36.734612 -0.25574803
47.472061 37.209724 -0.31850958
49.2384 39.928226 -0.3040266
49.344276 42.185814 -0.30688649
48.129124 43.41922 -0.32275486
58.851891 47.88699 -0.19149794
59.108482 47.874359 -0.18763189
44.557899 51.703716 -0.37524486
47.157242 53.830116 -0.35227674
46.918068 54.795078 -0.35661364
85.490906 -43.046703 0.044707939
16.426441 -18.040888 0.39942425
16.660219 -17.543556 0.3848584
12.862907 -17.398346 0.39581102
15.767303 -17.035509 0.37439519
16.079834 -17.181784 0.37715852
16.77285 -17.26545 0.37680161
16.232536 -16.661034 0.36241758
16.238579 -16.213177 0.35030174
15.145916 -15.870768 0.34562039
55.798973 -15.748972 0.44752494
12.657871 -15.463502 0.34561193
12.421295 -13.914181 0.30683362
55.255623 -13.826643 0.36939761
19.157425 -13.240854 0.25907317
50.959221 -13.115775 0.27622595
18.944958 -12.630303 0.24406736
51.079258 -12.834392 0.26750597
51.228313 -12.400414 0.25361383
12.269569 -11.624125 0.2504158
53.94862 -11.723653 0.27127719
54.906967 -11.859651 0.29330763
55.177593 -11.913158 0.3002311
12.415939 -11.296893 0.24169034
12.480328 -10.994872 0.23401837
13.285595 -10.60856 0.2205786
53.368259 -10.529839 0.21850543
53.6521 -10.566862 0.22475643
54.283432 -10.774315 0.24345952
54.512306 -10.511678 0.23838393
55.103928 -10.704961 0.25641191
27.869473 -10.08113 0.13854934
28.306206 -10.153072 0.13867699
45.83659 -10.10674 0.11813089
53.224232 -10.271245 0.20677622
53.65974 -10.184098 0.21123324
54.482361 -10.245167 0.22843294
54.605579 -10.127518 0.22662748
28.364931 -9.9412985 0.13277005
37.340263 -9.5814476 0.092981622
45.680058 -9.7340183 0.10411722
46.288445 -9.5813026 0.10190968
47.029121 -9.7781315 0.47521806
47.980858 -9.5759945 0.46070641
48.057327 -9.5424528 0.45849234
50.176956 -9.6927271 0.14064261
51.047466 -9.5958652 0.49293089
52.878342 -9.9225044 0.18839207
54.322399 -9.6990099 0.20620239
54.603523 -9.8069897 0.21535057
35.343555 -9.0922165 0.08380276
35.591198 -9.1448889 0.084576406
36.168903 -9.4127541 0.090756617
37.428825 -9.4102249 0.087662593
38.167355 -9.16362 0.078735664
39.681335 -9.019146 0.07185182
40.144615 -9.1374989 0.075033493
45.711567 -9.3203955 0.089646921
46.875942 -9.3758106 0.27360463
47.770729 -9.4157085 0.1915278
48.021362 -9.4035416 0.10769305
49.973679 -9.3557186 0.12580112
50.178986 -9.1350927 0.12021229
50.732826 -9.1526127 0.29385138
53.69397 -9.309268 0.1807581
35.182858 -8.8524542 0.077472985
39.741932 -8.9642363 0.070075817
40.15538 -8.9342861 0.068661883
40.738552 -8.5169754 0.49462801
43.796913 -8.718997 0.43830401
45.918423 -8.5545626 0.063608274
47.147758 -8.6999016 0.39977115
50.248016 -8.8502779 0.11059234
50.785427 -8.7482662 0.38264036
51.184101 -8.5911465 0.42394328
52.415028 -8.7411671 0.39706212
52.580929 -8.6221857 0.45913726
56.195606 -8.7107029 0.21049444
61.409832 -8.5922136 0.33187777
61.503269 -8.5035906 0.33163667
35.065819 -8.4211092 0.065670386
40.651417 -8.3518009 0.48785198
42.760555 -8.1542187 0.42460984
43.38007 -8.0784855 0.19738129
43.533901 -8.1000967 0.041554078
44.049213 -8.2658157 0.40543863
44.778328 -8.2972574 0.050550878
45.311619 -8.354084 0.054167613
45.794388 -8.3155451 0.054686088
46.795883 -8.324688 0.29918146
47.254932 -8.096818 0.12155112
47.568127 -8.0570688 0.055320952
48.183407 -8.1194706 0.35796124
49.767521 -8.0136156 0.074086353
50.587479 -8.4053097 0.098634884
51.317173 -8.1316729 0.34321168
51.944794 -8.0649738 0.1060691
52.165131 -8.244544 0.1161252
53.489536 -8.2669315 0.46208698
53.697166 -8.1864204 0.40478745
54.244785 -8.2126637 0.19712029
54.727509 -8.1435728 0.23392037
55.209057 -8.1353283 0.1698956
55.792397 -8.1783104 0.18387495
56.452293 -8.2960815 0.20239748
37.127724 -7.5517421 0.034286842
39.829266 -7.6776352 0.47501397
40.307705 -7.8785095 0.47170293
42.842262 -7.8535066 0.078672059
43.257652 -7.8686938 0.20481174
43.854626 -7.8201437 0.2284725
44.068142 -7.9265132 0.26856029
44.587601 -7.9137807 0.37391588
45.687737 -7.7409906 0.034215286
46.899796 -7.7469101 0.039963119
47.38229 -7.8292847 0.045851476
47.628319 -7.6599007 0.18113881
49.306866 -7.7717762 0.33860192
49.767704 -7.9915824 0.073280111
50.415611 -7.6045523 0.33985674
50.881207 -7.6905818 0.17498085
51.261772 -7.7252703 0.16919
51.707561 -7.6335135 0.1958932
52.027477 -7.8003745 0.29315773
53.833782 -7.7395806 0.43864301
54.257896 -7.8116541 0.38652533
54.632862 -7.8133268 0.35081887
55.184494 -7.847065 0.35357675
55.750072 -7.8244839 0.20197788
56.082851 -7.8545642 0.17953691
36.452843 -7.278512 0.028952569
36.825104 -7.222044 0.026046876
37.303932 -7.3250952 0.027299732
44.861977 -7.1815767 0.084480934
45.133369 -7.2448564 0.10256702
46.731907 -7.4271083 0.21832204
49.182041 -7.351162 0.3075293
49.845226 -7.4116373 0.31817791
50.316364 -7.3517323 0.32021874
51.387646 -7.4723129 0.34886235
51.689217 -7.4404349 0.29342782
55.607124 -7.40973 0.48787874
36.651756 -6.6953077 0.012134083
44.757339 -6.907515 0.0034194589
45.667034 -6.6040363 0.27299261
47.440823 -6.6559167 0.0041339644
47.617115 -6.7493501 0.26265576
48.179409 -6.614841 0.20096406
48.778004 -6.547051 0.22734937
49.186703 -6.9541445 0.27914631
49.969379 -6.9760933 0.28844935
50.141991 -6.9345317 0.28780082
46.283806 -6.0490718 0.22798331
46.563633 -6.0294309 0.22290175
47.367481 -6.1386275 0.37158337
47.677967 -6.1866574 0.37625712
48.180023 -6.4562392 0.0018758655
48.807655 -6.3758693 0.26821989
49.175663 -6.3327818 0.12822887
29.95879 -5.6215377 0.015282378
46.38208 -5.7978511 0.41939846
46.800705 -5.7468963 0.31399605
47.171322 -5.7479677 0.3038497
47.748764 -5.9540825 0.43430543
60.676739 -4.8444834 0.20622744
43.974632 -4.0942526 0.26919663
44.046585 -4.1721997 0.31714174
44.949543 -4.1384816 0.27850527
49.710117 -4.3289089 0.25397009
35.486557 -3.6736691 0.45900244
35.55127 -3.7615211 0.4593904
38.725647 -3.8458931 0.34078375
16.41605 -3.3940396 0.039646223
16.778564 -3.472115 0.039235398
20.85363 -3.2216227 0.010787502
59.029785 3.1889093 0.33145136
64.163063 4.3511047 0.12184913
66.763573 4.3851466 0.19554269
31.163124 4.8550239 0.47442684
32.488506 4.9748578 0.42204404
32.860744 4.6198411 0.40956318
34.101448 4.6161528 0.36134565
34.839066 4.5734944 0.333031
35.315079 4.7636995 0.31399611
54.465141 4.9279542 0.085184991
54.816856 4.8776689 0.27210125
55.879608 4.7828822 0.42213941
61.0298 4.8804755 0.16827059
66.770836 4.6983323 0.19109067
31.419277 5.2023902 0.46235019
31.506054 5.110024 0.45948803
35.344063 5.0339031 0.312049
35.83345 5.1409135 0.29331976
36.161369 5.375267 0.280734
45.649605 5.4864683 0.45209453
54.423313 5.0029678 0.08456099
54.727501 5.2036614 0.34954005
55.226444 5.1598253 0.12675714
55.596268 5.1804094 0.14576715
56.069111 5.0668759 0.44718519
65.605736 5.0395632 0.15300725
66.670235 5.3278189 0.17912687
35.463882 5.9591303 0.30651721
35.519234 5.8499641 0.30444944
36.228683 5.513238 0.2781713
41.212933 5.9435935 0.46901298
41.993748 5.899827 0.081070915
42.15588 5.9237523 0.24472928
42.934891 5.9114308 0.36738706
45.378502 5.6750274 0.48406377
45.807854 5.682096 0.38516194
46.224861 5.9316735 0.35412991
46.723419 5.8735771 0.32913914
47.10186 5.8422322 0.2690683
54.673862 5.7397413 0.24281359
62.810539 5.9051723 0.063218668
66.69693 5.5730453 0.17643811
37.063732 6.4055405 0.24949844
40.344971 6.4197011 0.13829957
40.93412 6.2479539 0.11787091
41.232872 6.2839108 0.29012558
41.702496 6.1779118 0.44702387
42.300781 6.1489024 0.18723002
42.755234 6.158608 0.29905969
43.269485 6.2915874 0.36408648
43.783463 6.3603544 0.22331773
44.208355 6.2956729 0.31741485
44.856583 6.1432781 0.28055915
46.352692 6.0526996 0.28380561
46.757256 6.1192846 0.35441846
47.243893 6.2162848 0.31880787
47.739094 6.3242612 0.33454853
48.025223 6.4148264 0.20132819
54.336525 6.2478046 0.2365827
54.688896 6.3012257 0.20591955
55.298401 6.4498167 0.15386041
62.526131 6.0154886 0.054039523
64.459404 6.0921898 0.1066495
34.487892 6.5089312 0.34275198
34.6054 6.6445251 0.33858025
37.086792 6.7027497 0.24994871
37.895065 6.9002013 0.22316347
38.250343 6.8832088 0.2110419
39.93734 6.5410819 0.15256362
42.235714 6.8535724 0.086963668
42.633186 6.7961802 0.075222597
43.071457 6.6210537 0.060702112
43.918442 6.7653942 0.12128644
44.198227 6.7077136 0.18391529
45.289139 6.7806368 0.29502976
45.690193 6.7998672 0.11556394
47.428185 6.587359 0.27024415
47.819641 6.7437086 0.38548234
48.10043 6.7371783 0.35016027
54.389778 6.6268167 0.22961693
54.970314 6.8603315 0.44379005
55.363361 6.6784706 0.46126524
32.918472 7.2779341 0.40102953
33.631573 7.282547 0.37502578
37.895584 7.3999963 0.22673614
38.905235 7.2605181 0.19251953
41.834682 7.3571229 0.10580172
44.348598 7.1977887 0.35399619
44.860424 7.209446 0.032241061
45.194508 7.1610537 0.052277088
45.66238 7.458652 0.025318062
47.708176 7.3577003 0.0039164447
48.181713 7.0228996 0.48728216
54.315243 7.1335201 0.4173429
54.700638 7.4516058 0.150259
55.27153 7.368422 0.48882404
59.11306 7.3605332 0.35992271
64.832886 7.4850993 0.10004465
32.985897 7.5429826 0.39891064
33.205875 7.8179946 0.39157453
35.807457 7.7592793 0.29972935
41.252453 7.9353089 0.1307988
41.985195 7.890296 0.11069135
44.27169 7.6246495 0.053076848
45.668072 7.7103744 0.031848513
54.575851 7.5383897 0.14734088
58.435596 7.9417219 0.3330766
58.749146 7.6867189 0.34528989
59.210308 7.8539796 0.37163898
64.676498 7.6912479 0.093417495
42.000717 8.1486607 0.11490084
47.486759 8.1256542 0.028387383
47.763615 8.3904724 0.22490662
48.135033 8.4793968 0.33589682
58.346458 8.2348499 0.3334268
64.801453 8.2689285 0.090348974
30.809273 8.8541527 0.48038885
41.623634 8.710331 0.13454805
44.778152 8.9075451 0.075897723
45.407349 8.6791744 0.061306506
47.955608 8.5371771 0.34088504
48.238037 8.7419167 0.35295323
30.944239 9.1539812 0.47639894
31.014271 9.0402975 0.47354233
32.794151 9.143014 0.41129774
40.451672 9.2095776 0.17313395
40.585831 9.3324757 0.17180912
41.618378 9.3000145 0.14595449
45.165306 9.0354128 0.074026808
47.834713 9.2509756 0.063394092
48.23555 9.2973509 0.11912452
48.518799 9.1032619 0.37630808
61.22298 9.1058435 0.49436873
64.833191 9.0799685 0.082565553
65.003174 9.0384245 0.087537065
33.104668 9.7179375 0.40405834
33.585571 9.8169193 0.38860425
42.549728 9.8341179 0.13711375
44.614929 9.6017151 0.096483454
47.38158 9.8122721 0.081368372
47.661636 9.6913509 0.077402815
48.49939 9.57827 0.40825593
48.525028 9.7721481 0.42129785
59.75536 9.7137318 0.42826277
64.761177 9.8280201 0.073137641
65.047852 9.7887506 0.081079647
66.934067 9.6145611 0.13325907
31.115673 10.470161 0.47650409
33.726673 10.000955 0.3853454
36.797657 10.05362 0.28866643
41.180058 10.374238 0.17763089
47.353413 10.019892 0.08792989
54.56179 10.402136 0.2234215
55.623886 10.18943 0.25572139
56.030022 10.2908 0.2739515
56.53352 10.345661 0.29536515
59.187737 10.263624 0.41073465
64.726456 10.250264 0.068161808
30.865847 10.52173 0.48536897
31.136684 10.586454 0.4764989
41.245209 10.515799 0.17917235
41.547539 10.968236 0.18262465
54.490662 10.531466 0.22470738
55.437874 10.629902 0.26045859
55.540932 10.602455 0.26349846
56.202713 10.689902 0.29084307
56.826302 10.512875 0.31137094
59.256115 10.77379 0.42390358
59.543129 10.754041 0.43695134
64.717514 10.585068 0.064786717
31.337534 11.288509 0.47464013
41.423767 11.011629 0.18610294
55.531158 11.406405 0.28491232
64.84845 11.440469 0.060454473
65.283127 11.429998 0.071726702
65.611641 11.381809 0.080650166
31.203846 11.813421 0.48332447
31.51479 11.885298 0.47380066
54.875511 11.65279 0.26948002
56.943192 11.559726 0.341887
57.039597 11.536741 0.34512985
64.85556 11.56716 0.059529051
65.083313 11.533756 0.065658137
31.719906 12.018382 0.46839625
42.080769 12.323893 0.20493244
64.89669 12.185345 0.0552959
65.168175 12.146116 0.062518828
42.124893 12.533615 0.20947014
55.139198 12.660327 0.307073
55.930431 12.563744 0.3308697
58.406513 12.707591 0.42920077
59.792515 12.808088 0.49076274
65.364548 12.869751 0.061435506
65.578506 12.907681 0.06651859
48.711853 13.081806 0.19170561
58.942234 13.391633 0.46771771
59.080067 13.295409 0.47117925
59.293045 13.697699 0.4895789
65.038239 13.515025 0.048133358
34.746353 14.45142 0.41131216
35.244682 14.430213 0.39795715
35.610432 14.416049 0.38836372
36.861835 14.337573 0.3562122
37.497845 14.321271 0.3411237
37.677555 14.312748 0.33689359
38.236084 14.283381 0.32400042
38.657158 14.269673 0.3147611
39.26709 14.242332 0.30177966
39.621113 14.223238 0.29444766
40.100792 14.211913 0.28523898
40.974457 14.162346 0.26895785
41.050964 14.149116 0.26738322
43.400681 14.048627 0.23331711
43.584759 14.030025 0.23092884
33.543262 14.512329 0.44478452
47.995911 15.028602 0.25118506
49.233189 15.296906 0.26925081
64.960373 15.319732 0.033032551
48.341248 15.801333 0.27861789
48.848637 15.828236 0.28335765
48.102657 16.477287 0.29928565
48.763332 16.431295 0.30254149
50.243999 16.042238 0.30545157
50.558014 16.08889 0.31123286
48.03492 16.570547 0.30193412
49.410004 16.658489 0.31607741
49.086906 17.479593 0.34004819
56.41935 17.309631 0.48343438
56.827229 17.291649 0.49555534
57.190552 17.003141 0.49886
47.464329 17.818169 0.3397209
47.69009 17.837288 0.34149858
47.496948 18.024097 0.34660548
46.975334 19.400583 0.38918281
46.992046 19.758593 0.40091002
47.011345 20.140955 0.41345471
47.030952 20.515028 0.42574382
48.805916 20.69235 0.44366986
49.808784 20.947277 0.46250343
50.375938 20.603901 0.45814538
49.107231 21.32103 0.46732563
49.434181 21.609447 0.48024416
49.580414 21.592834 0.48129341
89.409767 41.371956 0.44023913
90.423447 41.972172 0.4603399
88.630112 42.129204 0.41683698
88.888809 42.847702 0.41830799
92.04026 44.573345 0.48141259
90.771484 45.401581 0.44618714
92.144363 54.367474 0.42482734
89.96698 55.451904 0.37078297
90.091171 55.217827 0.37471521
89.974991 55.870708 0.36881626
16.012184 -36.763348 0.96533942
17.398945 -36.014805 0.94116545
17.37888 -35.520142 0.92522502
17.149422 -35.272301 0.91728544
17.668495 -35.450584 0.92297077
9.6033936 -34.263222 0.89253998
9.6097183 -33.534702 0.87027383
9.6216869 -33.168125 0.85909432
18.162392 -33.237881 0.85189342
18.555582 -33.287693 0.85336781
17.938484 -32.661461 0.83361733
18.108036 -32.830799 0.83892703
18.24877 -32.003353 0.81255376
10.647228 -31.973175 0.82095575
18.210451 -31.707169 0.80319041
18.394812 -31.190989 0.78674233
13.591167 -30.63166 0.77500856
14.158497 -30.580866 0.7725507
18.277163 -30.882833 0.77710718
12.423065 -29.23881 0.73493719
13.936909 -29.065895 0.72675323
47.895584 -28.069016 0.78995776
49.864487 -27.21279 0.7803486
9.7045174 -26.676733 0.66598624
48.124859 -26.79213 0.74552286
1.8389568 -26.324354 0.68158138
49.994171 -25.117668 0.70492321
12.640564 -24.900896 0.60620588
13.039318 -24.819279 0.60272348
50.079323 -24.805122 0.69445115
1.9864731 -24.21505 0.62312883
51.384209 -24.214571 0.68884361
51.645668 -24.186344 0.69117647
1.9205475 -23.630613 0.60754287
51.494049 -23.912806 0.67918146
1.255722 -23.319664 0.60182655
1.9376717 -23.403719 0.60134804
69.91127 -22.58247 0.9769901
1.1673393 -22.128054 0.57037473
69.942802 -22.458431 0.97371244
-7.1856079 -21.509726 0.59139544
-6.6614685 -21.547712 0.58993387
-6.1938286 -21.592648 0.58892453
-5.5143318 -21.551292 0.58474523
-4.8283882 -21.502533 0.58035904
-4.4033737 -21.553335 0.57973337
-3.7905579 -21.62867 0.57890874
-1.6083603 -21.683847 0.57062739
-1.2597351 -21.746523 0.57073545
-0.47163773 -21.814943 0.56909978
0.20577621 -21.943022 0.56955594
0.65169907 -21.950346 0.56784809
1.1262054 -21.941616 0.56560594
69.237854 -21.512617 0.92674184
70.061409 -21.806826 0.955495
-14.434273 -21.244492 0.61935902
-13.707191 -21.248871 0.61591756
-12.988453 -21.251007 0.61247522
-12.376339 -21.284924 0.61035585
68.371735 -21.4321 0.90405142
68.656242 -21.463343 0.91163898
70.2285 -21.386482 0.94597453
-15.611458 -20.626499 0.60992026
70.370949 -20.076832 0.90780926
70.728851 -20.333841 0.92454648
70.694138 -19.968756 0.9122225
74.162048 -19.740847 0.99096602
65.609978 -19.086445 0.76424116
66.061089 -19.422997 0.78553569
69.403999 -18.585775 0.83753967
69.521515 -18.566883 0.83980405
69.582947 -18.2365 0.83098793
70.129822 -18.350845 0.84794414
69.480255 -17.639345 0.80990291
69.533295 -17.568705 0.80902183
75.875427 -17.939415 0.98118985
69.437172 -17.358633 0.80015349
69.6343 -17.410757 0.80663502
69.143066 -16.616426 0.76999831
68.839134 -16.294081 0.752554
69.215996 -16.287552 0.76174593
69.904991 -16.43478 0.78349137
72.391716 -16.103739 0.83698648
69.350838 -15.635165 0.74528563
75.48027 -15.740052 0.90733838
69.324211 -15.228892 0.73236161
69.557693 -15.025108 0.73217988
72.778732 -15.144583 0.81902725
74.124001 -15.373165 0.86098373
75.461151 -15.481397 0.89948058
72.479553 -14.771408 0.80038881
73.159782 -14.527922 0.8113184
75.424377 -14.839897 0.88038921
75.623398 -14.68854 0.88147837
69.766663 -14.142093 0.71135157
70.394653 -14.023766 0.72416353
72.107361 -14.303729 0.77712321
73.875565 -14.226217 0.82175815
55.505142 -13.560081 0.88468099
70.258156 -13.721915 0.71181124
73.844131 -13.719793 0.80667371
70.350647 -13.162872 0.6980626
70.518036 -12.965484 0.69680798
73.092186 -12.549892 0.75389636
73.952827 -12.807686 0.78426623
71.265991 -12.054691 0.69098073
71.708847 -12.118413 0.70465517
72.24469 -12.222491 0.7219761
72.557327 -12.443775 0.7365337
79.200935 -11.521245 0.89443612
29.05505 -11.033361 0.98468649
50.804726 -11.161309 0.60062009
51.234543 -11.08928 0.60288751
71.456314 -11.440937 0.67909479
72.777992 -11.16657 0.7075637
79.233063 -11.241829 0.88817298
79.625015 -11.097405 0.8954469
28.838587 -10.779399 0.98103869
51.180855 -10.707492 0.96029258
70.590294 -10.697601 0.63522619
71.054329 -10.593483 0.64500779
72.705765 -10.932657 0.69928312
50.769989 -10.391864 0.91803551
54.220612 -10.453423 0.63344443
36.092209 -9.6351395 0.68746293
49.014568 -9.7324228 0.82609284
52.60165 -9.7242002 0.89795715
53.18037 -9.5232935 0.53826994
35.443604 -9.1112499 0.68247318
35.72636 -9.1747894 0.67642194
36.289993 -9.1453648 0.65709537
40.602104 -9.0509586 0.52802837
43.54068 -9.009573 0.85186219
46.934147 -9.261323 0.78629184
48.044399 -9.4703074 0.79804182
48.867134 -9.4616318 0.79666555
49.19989 -9.217454 0.77213377
52.874153 -9.2256565 0.57792854
53.276558 -9.3538961 0.5561887
53.662769 -9.2342634 0.53309798
56.950176 -9.0690784 0.6475355
57.219536 -9.0824232 0.66024232
26.628452 -8.6759825 0.97514975
28.856869 -8.6248302 0.89075899
35.663876 -8.5208321 0.64739358
36.766651 -8.7045164 0.62052447
38.682674 -8.7630119 0.56499743
39.067726 -8.5785866 0.54416162
40.335754 -8.5900497 0.50934303
40.569988 -8.8652849 0.51842403
42.715408 -8.7127342 0.85857105
43.683277 -8.7624302 0.82388353
47.06855 -8.7073574 0.72732586
52.367065 -8.6919813 0.78269958
52.807617 -8.9131117 0.82197219
53.266163 -8.8642664 0.8358556
53.666115 -8.660224 0.83323824
61.467541 -8.6049147 0.84410113
61.531338 -8.5253725 0.84348822
75.133865 -8.5481873 0.70501834
27.605486 -8.1708193 0.91955245
35.671127 -8.4485455 0.64378273
36.740257 -8.0505619 0.58996314
37.339367 -8.0439453 0.57023346
39.323902 -8.2093859 0.51749569
39.716434 -8.1826353 0.96498996
40.19986 -8.2606783 0.79491615
43.319576 -8.1529865 0.78361708
43.719521 -8.1442356 0.76639098
46.293049 -8.4702787 0.71702313
47.900505 -8.2361193 0.97455478
48.180977 -8.1970406 0.96531177
49.13625 -8.0888824 0.65140688
49.951313 -8.0671616 0.94811797
50.27906 -8.152092 0.96552467
50.824028 -8.0748987 0.67248929
51.1063 -8.360692 0.70948923
51.83493 -8.2000847 0.78818303
53.692322 -8.2575502 0.79444742
54.463165 -8.0816288 0.81699622
54.772816 -8.1414499 0.83995271
55.247414 -8.1843128 0.83736229
55.781231 -8.1684761 0.54201806
56.147522 -8.2109241 0.74401152
75.230667 -8.3318844 0.70236623
26.2111 -7.6466565 0.95293397
35.290428 -7.5428638 0.61572081
36.64045 -7.7753053 0.58042616
37.314087 -7.9981632 0.56884736
38.637711 -7.6451864 0.50965083
39.684422 -7.802444 0.93852931
43.470314 -7.9403944 0.75844133
44.636475 -7.7979293 0.69980782
47.762253 -7.5862455 0.88698089
48.246574 -7.5907116 0.59908783
49.32465 -7.8748994 0.6296252
50.346981 -7.660131 0.82879764
50.708241 -7.6488709 0.73811722
51.298923 -7.6454883 0.63902688
51.678249 -7.8487263 0.76860005
53.756321 -7.7000813 0.74284118
54.235962 -7.8843369 0.78577441
54.782227 -7.9747057 0.8247453
55.277325 -7.711616 0.82978874
55.698608 -7.6137023 0.79876548
56.085316 -7.6121826 0.87265319
25.999933 -7.4728384 0.95480025
26.082655 -7.216918 0.94267035
33.834888 -7.4119644 0.66130215
34.015007 -7.058063 0.64018559
35.381168 -7.4967442 0.61055183
37.956978 -7.3737097 0.51825607
38.252064 -7.3704257 0.99326241
39.434372 -7.0728188 0.90101498
39.793858 -7.0298944 0.87654448
45.263222 -7.0192957 0.60505289
47.098095 -7.2086926 0.85196781
47.749569 -7.161036 0.55863559
48.22448 -7.1820464 0.58418828
48.970612 -7.2258124 0.66242063
49.180592 -7.278357 0.72200215
49.905296 -7.0306726 0.54481572
50.237537 -7.2699924 0.57531357
50.793839 -7.3551917 0.82805961
51.20446 -7.2130027 0.80210799
51.594704 -7.3706651 0.89346808
55.185493 -7.420548 0.79751241
55.581558 -7.4629521 0.82641423
63.918098 -7.1921196 0.91476452
33.707863 -6.9268246 0.64593983
34.026535 -6.9531107 0.63547212
36.379379 -6.6408548 0.53860539
36.950665 -6.9550004 0.53258097
39.337696 -6.9003263 0.89499569
45.391956 -6.8167725 0.63835949
45.611599 -6.7108846 0.82581687
47.432125 -6.5006161 0.99956477
47.866463 -6.9182615 0.53214979
48.173904 -6.8059673 0.64124501
48.7332 -6.6255407 0.78556269
49.311211 -6.9337492 0.78151214
49.703758 -6.9191799 0.65516579
50.101707 -6.9712181 0.54119909
63.98402 -6.8849435 0.90536028
82.969177 -6.7056541 0.88463116
83.179955 -6.5128441 0.8863101
36.299046 -6.3303332 0.52828503
45.523315 -6.4177594 0.81811494
46.127598 -6.3550367 0.75458056
46.911945 -6.1246047 0.74135256
47.262409 -6.2011847 0.80821991
47.769894 -6.098412 0.83376569
48.203964 -6.1540413 0.81916815
48.674622 -6.4231749 0.75955212
46.764362 -5.8322229 0.68259799
47.251015 -5.9604874 0.9174704
47.88229 -5.9276061 0.67667192
48.087078 -5.9666233 0.65657514
51.298943 -5.0883908 0.95822954
51.176559 -4.9778433 0.9274615
60.722092 -4.818151 0.62622672
43.998714 -4.0580797 0.92841947
44.099197 -4.1384349 0.80496955
44.954578 -4.1571851 0.71723944
45.002499 -4.1348505 0.82550776
49.791077 -4.3213658 0.73207712
35.236969 -3.5871649 0.99410272
35.527016 -3.699358 0.97765017
38.391052 -3.7079732 0.77178913
38.737572 -3.8067594 0.75200528
27.734631 -3.330883 0.75602555
34.920933 -3.1488683 0.99984515
34.83223 -2.7348647 0.99101126
35.402073 -2.5203865 0.94104934
34.642937 -2.1971302 0.98659742
35.441547 -2.3549814 0.9323383
35.506012 -2.4468184 0.93073285
58.826828 2.9591556 0.98366785
58.899872 3.1739748 0.91188866
59.048939 3.1803453 0.67335856
88.440903 3.4141698 0.83912694
87.727455 3.7612667 0.81224614
55.434261 4.4829888 0.87734711
84.938194 4.4883847 0.71863043
86.500549 4.4210963 0.76511133
88.081871 4.1968708 0.81490594
20.063349 4.7354012 0.91662312
33.253387 4.5954223 0.99513578
34.291164 4.674449 0.92020255
35.383514 4.5872345 0.84091306
35.688194 4.7664323 0.82035625
54.248013 4.7479491 0.86749178
54.777481 4.7030468 0.74182224
55.217529 4.7086558 0.74718899
55.61153 4.9635801 0.93947828
61.140976 4.9244385 0.88915098
84.741287 4.7673512 0.70816708
86.501419 4.5509806 0.7628994
35.377392 5.2875161 0.84699917
35.662895 5.3758841 0.82783908
36.167656 5.4677124 0.79344082
45.386002 5.397481 0.89683175
45.67091 5.3983989 0.82256418
46.322758 5.4491873 0.79176289
53.877731 5.122375 0.96906507
54.3321 5.2200737 0.70869601
54.670906 5.2257748 0.69306672
55.597809 5.0033984 0.94089842
64.641502 5.3185072 0.67043763
65.141083 5.0821977 0.70175809
84.058014 5.3478365 0.67860997
84.961708 5.2341433 0.70667231
85.118271 5.2566266 0.71082443
35.998783 5.6140757 0.80704594
36.413548 5.7229881 0.77977985
36.644806 5.9783807 0.7676847
38.452877 5.8830867 0.64405853
38.663067 5.9381561 0.63126981
39.984497 5.9543953 0.54589033
40.330109 5.8840132 0.52221137
40.614616 5.8739133 0.75778627
41.451004 5.7487278 0.80275744
41.714287 5.904654 0.78712201
42.179314 5.983202 0.75066674
43.791626 5.8900876 0.61304808
44.347107 5.7209082 0.73026687
44.735336 5.8934331 0.64102715
45.245113 5.6237993 0.83198428
45.805511 5.675879 0.77619815
46.302315 5.6482034 0.7785393
46.722237 5.7051187 0.76800585
47.122829 5.8345466 0.62577397
53.962807 5.9013581 0.83098263
54.082027 5.997406 0.59746116
54.707733 5.7009254 0.68435067
80.673347 5.9429717 0.57109147
84.306984 5.751574 0.67913067
18.809845 6.3729663 0.9500289
21.685675 6.3609228 0.83623016
36.889858 6.0860524 0.75277871
37.254818 6.1861458 0.72992998
38.066307 6.2816219 0.67778599
38.67643 6.2254229 0.63664538
40.650314 6.153914 0.66298467
41.750793 6.0258236 0.79019213
42.310909 6.102417 0.74616808
42.813412 6.2506518 0.71329784
43.215652 6.293467 0.78711367
43.766621 6.1200137 0.63011783
44.23917 6.1905847 0.72724938
44.754326 6.1020808 0.62798733
45.016861 6.0606985 0.53702331
45.902271 6.0630279 0.73380756
46.481117 6.3331356 0.7247203
46.872673 6.1499081 0.8609699
47.171188 6.3302631 0.82627016
47.722435 6.4090929 0.67038059
48.06818 6.4780865 0.66732317
54.134468 6.431828 0.90695274
54.749619 6.2812057 0.77054894
55.696163 6.0584517 0.75018704
56.283787 6.4724178 0.83610857
64.643425 6.1446004 0.66983664
80.59861 6.2047882 0.56475812
84.330009 6.2528496 0.67159349
18.809456 6.6547098 0.9475649
19.056705 6.7712831 0.93679309
21.495148 6.8656559 0.83988631
21.681355 6.6946611 0.83383554
37.956749 6.6574979 0.69315529
38.189541 6.5298944 0.67514002
38.596828 6.5987401 0.65043753
40.329914 6.8033342 0.54821759
42.987553 6.5046144 0.71519315
45.596191 6.9679456 0.57555902
47.349609 6.5385828 0.70285046
47.768036 6.7428856 0.79081702
48.175434 6.6850705 0.69195151
54.368343 6.6348605 0.79612947
54.919403 6.9943466 0.74747866
55.299988 6.6905379 0.75764894
56.100845 6.7542577 0.59611464
64.754128 6.7020936 0.67705983
80.392975 6.6057897 0.55250591
80.929565 6.5490508 0.56883323
81.270386 6.9686322 0.5720616
21.721107 7.0195951 0.82992625
45.183842 7.3055882 0.92775559
45.512417 7.1595144 0.59624732
46.989132 7.1443601 0.79670495
54.159744 7.1693096 0.70038086
54.915897 7.1920652 0.76289022
55.047043 7.2684007 0.78001654
64.787186 7.2263422 0.6802848
81.167458 7.3395824 0.56336737
83.02861 7.4644394 0.61487168
88.26799 7.226922 0.76947653
47.240398 7.7895169 0.8688916
53.833008 7.9051342 0.7409904
54.296967 7.7897911 0.76386338
54.537453 7.8660975 0.78840184
58.83419 7.835927 0.76675653
59.429733 7.6004457 0.80578959
60.232754 7.9896498 0.88420677
60.882996 7.8329024 0.93299741
64.800201 7.681354 0.6826933
83.756172 7.7486277 0.63136548
41.238129 8.0092621 0.53942728
47.936882 8.2919846 0.61821079
48.134033 8.2593155 0.73609406
55.315548 8.2651567 0.88280636
60.346378 8.0206575 0.89452529
60.886921 8.0702238 0.9406777
61.177258 8.4515181 0.97682428
64.832367 8.2617702 0.68741578
84.261841 8.368063 0.63636947
84.609444 8.3226795 0.64702564
44.629356 8.7236099 0.77572823
47.948219 8.713728 0.66032195
48.259392 8.771698 0.79437637
59.601448 8.8794765 0.86615407
64.873848 8.8085613 0.69318396
41.657536 9.1455688 0.56684017
42.008961 9.0221272 0.54478222
42.560379 9.4826126 0.54252297
48.374096 9.2499285 0.70994222
48.62862 9.3579311 0.71941757
57.98452 9.1943712 0.7599715
58.028217 9.176177 0.76222658
59.145905 9.3922234 0.85253274
64.887695 9.0504742 0.69566643
55.830326 9.9868507 0.6618014
56.866005 9.9835739 0.72387409
60.491108 9.54004 0.9604075
60.522053 9.5045948 0.96145129
41.194153 10.367446 0.64483935
54.417328 10.403334 0.61167604
54.535156 10.310612 0.61174178
55.35878 10.283 0.65239704
55.860378 10.247358 0.67799968
56.194347 10.138576 0.6912567
56.817795 10.059644 0.7248106
58.551777 10.410458 0.85580456
41.438828 10.654197 0.64792591
54.321327 10.595617 0.61883962
56.328247 10.587175 0.72358418
40.883514 11.467161 0.71157217
54.339413 11.160797 0.65431207
55.493633 11.495146 0.72983474
57.385334 11.39478 0.82997799
38.898224 11.871404 0.82062745
39.078136 11.763488 0.80719519
40.316849 11.892731 0.75674188
55.8843 11.756444 0.76527864
56.104607 11.551593 0.76516908
55.399143 12.446619 0.78189385
55.692432 12.411349 0.79407412
58.658993 12.900374 0.98741102
48.73637 13.033329 0.64228106
60.743729 13.165334 0.54102397
59.414452 13.973597 0.50117755
60.569427 13.983824 0.55078888
37.521248 14.308198 0.99632251
38.974735 14.230793 0.92899156
60.132969 14.317848 0.5394721
48.000961 14.536722 0.74213827
48.66861 14.767608 0.75960553
47.973396 15.192893 0.78636813
48.250278 15.092434 0.78020084
48.758396 15.308561 0.79678822
49.215801 15.256256 0.79639149
49.729919 15.333256 0.80660355
59.396568 15.370505 0.53458196
48.189789 15.64862 0.81754512
48.992653 15.782736 0.83049166
49.04689 15.789499 0.83134305
50.340839 15.839533 0.84900975
48.219402 16.460693 0.87257469
48.846169 16.446035 0.87459159
50.772697 16.240829 0.88310987
50.290943 16.523792 0.89483559
50.703445 16.633522 0.9086948
58.099758 16.686638 0.52080023
49.106113 17.018679 0.91541612
56.863529 17.908403 0.51477766
56.07888 18.483643 0.50857264
56.726967 18.199554 0.51919854
58.468288 18.348156 0.57979244
56.033726 18.667746 0.51287597
56.756939 18.946621 0.54232866
59.912281 19.450533 0.66091645
60.140602 19.402658 0.66788799
60.691383 19.457552 0.68969572
61.059845 19.476625 0.70409799
58.406452 19.599039 0.61319292
60.637108 19.597916 0.69138479
61.629093 19.803659 0.73438632
58.277222 20.286739 0.62885559
61.684784 20.307758 0.74951327
56.819946 20.886673 0.60265195
57.223545 20.726664 0.60950094
57.774776 20.727802 0.62606728
58.20372 20.970051 0.6464572
59.645462 20.549562 0.68179691
56.571499 21.227707 0.60606271
50.822414 21.847282 0.50536966
56.352081 21.709394 0.61489308
60.938976 21.780178 0.7611382
56.297192 23.438761 0.66714209
56.555359 23.391342 0.67235917
48.679298 24.976902 0.58415115
50.107124 25.307194 0.61047101
49.709908 25.912333 0.62580037
49.211857 28.358717 0.70133948
49.950386 29.200409 0.73751163
50.728825 29.896362 0.77036035
47.433205 30.364063 0.75158274
51.593269 31.404915 0.83232713
69.691971 -24.594784 1.0376251
70.938568 -24.595999 1.0660913
69.8265 -24.496628 1.0374444
70.388985 -24.29822 1.0437715
71.770752 -24.0886 1.0689632
72.007469 -24.089516 1.0745363
73.293694 -23.603588 1.0895094
70.17437 -23.207539 1.0033405
71.412689 -23.110506 1.0291197
72.455528 -23.41256 1.0634457
72.637009 -23.267502 1.0631537
73.11042 -23.261957 1.0742973
71.431114 -22.967802 1.0249803
71.674438 -22.274839 1.0086436
71.883041 -21.872494 1.0008855
30.130438 -20.567265 1.4434294
31.386881 -20.215366 1.3930321
31.504566 -20.376387 1.3996701
86.590836 -19.744265 1.3171654
76.108788 -19.064123 1.0203071
86.616257 -19.431101 1.3092313
89.781296 -19.043442 1.3849602
86.574341 -18.459354 1.2815437
89.848984 -17.642056 1.349544
89.870331 -17.226164 1.3392
64.747337 -16.740726 1.4577134
89.891289 -16.751101 1.3273628
92.991302 -16.650812 1.4111142
93.546684 -16.70035 1.427906
95.098076 -16.765182 1.4729898
64.671997 -16.419834 1.435438
89.89666 -16.428438 1.3191166
90.157845 -16.371851 1.3249152
35.734329 -15.966108 1.0439249
94.239761 -15.39166 1.4142467
95.646233 -14.982702 1.4437315
82.487 -13.62124 1.0402597
83.146477 -13.286712 1.0499271
95.391205 -13.170242 1.3921639
94.551392 -12.577622 1.3539827
95.245094 -12.775217 1.3784871
46.438225 -12.087682 1.0849626
83.03228 -12.120889 1.0169251
94.020943 -12.101789 1.3274565
27.908047 -11.750573 1.0558903
70.345924 -11.763465 1.4892412
83.409813 -11.796032 1.0193338
93.679588 -11.76001 1.3095589
94.307709 -11.672677 1.3254015
94.833435 -11.56031 1.3377517
20.815456 -11.123863 1.2848868
21.169382 -11.274836 1.2775809
27.380976 -11.439966 1.0605097
50.241886 -11.335145 1.4176918
70.228432 -11.230147 1.4583777
70.772118 -11.098503 1.4838514
95.160355 -11.316704 1.341344
70.851089 -10.98485 1.4834217
94.746361 -10.803566 1.3174484
95.028336 -10.538746 1.3193396
97.358734 -10.915462 1.3949172
97.502426 -10.773595 1.3957472
99.20137 -10.801037 1.4451495
100.00106 -10.794966 1.4679809
25.133841 -10.287068 1.0930154
25.860432 -10.08287 1.0582999
41.983593 -10.291661 1.4913909
42.030708 -10.120004 1.4682775
49.912998 -10.487404 1.2922058
50.094105 -10.278137 1.2649337
54.459717 -10.276823 1.4366556
70.429543 -10.361104 1.4317302
70.604401 -10.182001 1.4342997
71.202744 -10.063278 1.4644375
71.582642 -10.105466 1.4886335
97.248306 -10.020325 1.3710828
98.682213 -10.158898 1.4154825
24.808115 -9.7213211 1.0828211
26.854837 -9.5630379 1.0012617
39.261818 -9.5291843 1.0931733
41.178497 -9.8677931 1.4950435
41.971287 -9.6555262 1.4179649
42.104862 -9.7309923 1.4181325
55.544403 -9.7157259 1.0325629
57.48098 -9.8347654 1.1606727
57.544373 -9.8412304 1.1653728
70.71611 -9.9655046 1.4316434
99.4104 -9.5914612 1.4235258
26.548702 -9.3164663 1.0027822
38.903778 -9.2784557 1.0928843
39.202793 -9.277976 1.0767204
47.830246 -9.1349573 1.1009384
48.870728 -9.1983013 1.102232
49.038361 -9.1599598 1.0968671
49.999649 -9.1237564 1.0992203
50.193863 -9.2347851 1.2854755
53.995995 -9.4526424 1.2994447
57.743649 -9.2468557 1.1266397
58.078293 -9.0569687 1.1334845
98.621208 -9.0827417 1.389297
99.711174 -9.4698582 1.429442
23.776121 -8.7861443 1.0864811
37.421032 -8.6365185 1.13052
39.792171 -8.613615 1.464708
43.333588 -8.8811178 1.2420301
43.789547 -8.6490593 1.1875119
46.165897 -8.6720381 1.0786963
47.148647 -8.986433 1.092806
47.894333 -8.8759327 1.394634
48.974209 -8.6264133 1.0211141
49.986565 -8.7806549 1.3705848
50.106232 -8.6001453 1.3403397
52.378277 -8.5328188 1.4129158
52.78323 -8.6857796 1.2328146
53.252419 -8.6850357 1.2655461
53.709896 -8.7792139 1.2858231
55.718899 -8.7264996 1.3283199
61.471321 -8.7017136 1.3643925
61.525864 -8.582798 1.360269
98.65329 -8.912343 1.3863897
13.953766 -8.3714151 1.4526055
14.036747 -8.264039 1.4459916
24.182425 -8.2531786 1.0518519
39.915352 -8.0727396 1.4009957
40.196739 -8.0710392 1.3777454
43.701469 -8.4603958 1.1698955
46.347912 -8.397418 1.0357919
46.751652 -8.4431858 1.3559098
48.750736 -8.150876 1.2543231
49.896935 -8.4787025 1.0059979
50.049683 -8.3825569 1.3006477
51.749958 -8.2978001 1.3396155
52.230919 -8.3435802 1.1111368
52.795593 -8.4790115 1.3194307
53.825081 -8.3143072 1.3202233
54.175865 -8.2867947 1.1588972
54.741207 -8.1005487 1.1754994
55.183197 -8.2685022 1.2299497
61.953613 -8.4499779 1.3861241
14.382021 -7.8135223 1.4183807
14.508343 -7.5911031 1.4065672
22.249491 -7.8334374 1.1114624
24.599895 -7.6772752 1.015584
34.646236 -7.6313963 1.2407153
36.13475 -7.8407474 1.15685
36.713058 -7.8380737 1.1200938
37.26384 -7.9352903 1.0920788
38.771946 -7.7464428 1.4677961
39.08036 -7.5242176 1.4204276
39.820232 -7.8018255 1.3826698
40.028168 -7.5402598 1.340006
45.593994 -7.7437506 1.3012347
47.16465 -7.5395885 1.1862272
48.031864 -7.8878984 1.2191719
48.831219 -7.7836676 1.1888214
50.279278 -7.5640044 1.2072005
50.804939 -7.6783376 1.3378148
51.373898 -7.678905 1.2146702
51.7603 -7.6656795 1.2302877
52.009197 -7.8554831 1.2759137
53.903133 -7.7282109 1.0682644
54.180668 -7.8117256 1.0983012
54.931049 -7.7525821 1.4844269
55.108612 -7.643837 1.3842674
56.130699 -7.5885296 1.2281142
63.62785 -7.8174691 1.4869931
13.259653 -7.3388619 1.4483867
14.486568 -7.0869098 1.3922057
14.738424 -7.3517294 1.3901938
24.229504 -7.1142035 1.0105735
24.657661 -7.3257637 1.0012172
33.633221 -7.1455712 1.2807802
34.807796 -7.3193765 1.2116152
35.136749 -7.3472137 1.1914928
36.266129 -7.0107141 1.0968908
37.965492 -7.0184135 1.4775214
38.341965 -7.0375862 1.4442508
38.831554 -7.2795391 1.4206136
39.168701 -7.2681651 1.3894655
45.495361 -7.1173162 1.2088436
48.659653 -7.4685278 1.1347389
49.261806 -7.1626811 1.1087852
49.718197 -7.2522922 1.0953275
50.35873 -7.2552042 1.2014914
50.753933 -7.2721505 1.2515122
51.13826 -7.2710972 1.2688174
53.999672 -7.4813991 1.0433224
54.024963 -7.432497 1.038897
55.233925 -7.2801638 1.2340137
55.715176 -7.3109589 1.2015107
56.237038 -7.3085537 1.2059687
63.401897 -7.250329 1.4317629
63.570026 -7.1904087 1.4430321
12.035625 -6.9052334 1.4842782
13.432724 -6.5059891 1.417091
14.134721 -6.7750726 1.3969616
33.248985 -6.5657854 1.2759405
33.826889 -6.7562761 1.2462511
34.459644 -6.5127559 1.1896641
34.625526 -6.6020603 1.1832072
35.223408 -6.7674656 1.1519601
35.56501 -6.785274 1.1300488
36.899799 -6.7882791 1.0419412
37.429302 -6.5412292 1.4898677
38.258377 -6.9702411 1.4462856
38.666992 -6.9164963 1.4040217
39.289806 -6.7831178 1.3356622
45.742661 -6.7520676 1.3777357
46.340721 -6.7673831 1.0991685
46.61919 -6.6791472 1.1578677
47.357635 -6.5596766 1.0126638
47.609329 -6.6729412 1.0218506
48.186398 -6.8493333 1.0346417
48.76445 -6.5671234 1.4720387
49.393589 -6.8129864 1.2106291
49.633373 -6.6675491 1.2740433
50.129765 -6.6276927 1.2568353
55.264542 -6.924283 1.3951335
59.451817 -6.6967697 1.4744796
63.350533 -6.6538267 1.3912992
13.901196 -6.2906647 1.3922362
14.024391 -6.1396747 1.3830185
33.41655 -6.368453 1.2540448
33.727177 -6.3703527 1.2325988
34.84893 -6.2784915 1.1502908
35.57935 -6.4172306 1.1081336
37.443268 -6.4501657 1.4814504
45.752682 -6.1307611 1.0382259
46.211082 -6.2296972 1.1017141
46.703415 -6.1905069 1.2380273
47.389317 -6.1844707 1.2314094
47.626358 -6.2116423 1.2346218
48.205654 -6.1762776 1.3172197
48.766731 -6.1639776 1.2166917
49.137371 -6.2818623 1.2448603
49.953655 -6.4845619 1.2021562
14.401447 -5.8823562 1.3606855
34.298927 -5.6402488 1.1552933
36.073048 -5.613163 1.0304108
45.466026 -5.897016 1.0250833
45.59206 -5.9424191 1.0218579
46.429089 -5.9733229 1.4775274
46.741226 -5.8378649 1.2505083
47.252533 -5.9047418 1.146805
47.817795 -5.7451968 1.2300403
48.279285 -5.8040266 1.1817431
48.592957 -5.9128551 1.201305
51.746933 -5.5489697 1.2503973
14.309151 -5.0786018 1.3422446
33.948051 -5.0280738 1.150568
35.380589 -5.3223577 1.063457
35.514679 -5.3600678 1.055984
47.643196 -5.2075505 1.4126669
51.198555 -5.1313925 1.2642914
51.764885 -5.4269199 1.2786107
52.466866 -5.0729108 1.4878706
92.895798 -5.0858302 1.1358808
13.388941 -4.7670884 1.3709462
13.51004 -4.5573497 1.3605723
14.430902 -4.8748026 1.3318882
33.905685 -4.858108 1.1457541
34.202572 -4.8643222 1.1248122
34.599388 -4.6977487 1.0886903
52.396832 -4.9331989 1.4423716
60.803383 -4.7735791 1.2465755
92.798218 -4.7648258 1.1262094
13.319225 -4.4527063 1.3655438
34.827122 -4.0009665 1.0413141
35.864754 -4.0390568 1.482178
44.117771 -4.1598058 1.3004352
44.941586 -4.0918069 1.2578474
45.048695 -4.1976705 1.2690018
49.84293 -4.3309512 1.0726705
63.473194 -4.1032743 1.2690299
63.516281 -4.0420032 1.2703578
91.189362 -4.0735645 1.0648761
92.743454 -4.4524484 1.1179948
33.345032 -3.9818835 1.1484901
34.40834 -3.8892875 1.0670552
35.069954 -3.7404084 1.012802
35.677814 -3.5770335 1.47762
36.124752 -3.7526605 1.439144
38.134094 -3.5333805 1.2145277
38.814617 -3.85256 1.1623266
52.884438 -3.8959298 1.2590337
63.524544 -3.9399595 1.266571
91.373672 -3.7957578 1.0644001
91.97374 -3.6267388 1.0783072
92.161423 -3.5021234 1.0811698
20.891851 -3.2400877 1.0289873
33.22509 -3.0455666 1.1213866
33.900391 -3.1721692 1.0760858
34.27951 -3.0107992 1.0420079
34.85947 -3.2158763 1.0070149
35.008034 -3.3991013 1.0032398
35.820206 -3.3430235 1.4506184
36.065685 -3.1047432 1.4126492
38.095711 -3.454546 1.2141461
92.661583 -3.2442446 1.0903727
13.986511 -2.7252526 1.2958795
14.05438 -2.911428 1.2975347
35.918983 -2.7346222 1.4113669
36.457748 -2.7920587 1.3556768
36.552849 -2.6515484 1.3390257
92.272278 -2.6919241 1.0676982
92.919189 -2.9546189 1.0918975
98.339905 -2.8536358 1.2475457
98.765327 -2.7086339 1.2569799
99.162392 -2.5591564 1.2655079
34.391575 -2.4003644 1.0121188
34.9245 -2.0316563 1.4910579
35.319195 -2.2145119 1.4549112
35.567715 -2.1380084 1.4246682
36.266754 -2.3685491 1.3577256
97.730713 -2.3040152 1.2186797
98.477951 -2.172261 1.2377801
98.545822 -2.0050795 1.2363999
34.897514 -1.9294963 1.4902384
35.072338 -1.7766395 1.4655234
98.459763 -1.6696197 1.2271894
98.525223 -1.8338447 1.232373
58.959499 3.2835548 1.0068837
59.08437 3.3238063 1.0235695
32.779709 4.49332 1.0294096
34.329185 4.3761158 1.481306
54.234451 4.3765373 1.2100116
54.753529 4.3232355 1.1539203
55.124348 4.4214449 1.199121
31.711351 4.5970459 1.1077603
32.410271 4.8161592 1.0572394
32.551182 4.9707775 1.0475371
34.240776 4.5450068 1.49295
34.884346 4.6148825 1.4256816
35.302139 4.8480477 1.3855835
53.940468 4.7043276 1.2836573
54.092285 4.6955738 1.2178098
54.579693 4.9264712 1.0447758
55.979343 4.9090285 1.2645171
56.010216 4.8797555 1.266777
61.185799 4.9025197 1.3277671
7.4606819 5.1730294 1.4185662
7.5191193 5.3907418 1.4133799
14.17623 5.1378212 1.1484061
32.596191 5.2801609 1.0457653
35.265011 5.1994505 1.3962411
35.795273 5.3434653 1.3443736
43.936657 5.4867239 1.140726
44.130058 5.4384151 1.1099405
44.802971 5.4576669 1.2911705
45.380283 5.3514223 1.2769431
45.737644 5.2055268 1.1528596
46.14658 5.2362232 1.1256595
46.622414 5.4699669 1.1960788
53.71162 5.3842888 1.4591186
54.320408 5.3516273 1.3090969
54.730209 5.3407063 1.3100675
31.00589 5.6133337 1.1623678
35.961323 5.5872726 1.3331033
36.05682 5.6599231 1.3251793
36.797142 5.8697672 1.2559054
37.079071 5.9045138 1.2286608
37.959152 5.6583128 1.1329869
40.467632 5.9081817 1.2892531
40.759193 5.9039536 1.2533053
41.334759 5.9203725 1.1850153
41.826805 5.9182329 1.231887
42.077477 5.9621897 1.3081069
43.902451 5.760715 1.3254077
44.281853 5.6890702 1.163221
44.705414 5.717772 1.1813583
45.318882 5.5973606 1.2812749
45.76992 5.6647458 1.3481952
46.199543 5.6637769 1.2480576
46.738449 5.7505774 1.1968412
53.434387 5.7137766 1.4788566
53.824951 5.7019916 1.218755
54.011078 5.706295 1.0643471
54.65036 5.9920802 1.4622813
55.221924 5.593421 1.2192134
55.937653 5.8217297 1.2036395
56.089802 5.7264075 1.3675052
34.90884 6.2388296 1.4576418
35.27253 6.0900083 1.4166012
35.691048 6.1508245 1.3757714
37.299053 6.1771717 1.2156153
37.886852 6.2811131 1.161473
38.209053 6.2917051 1.1306531
38.712509 6.4394183 1.0880927
39.202003 6.2678647 1.3227319
40.709965 6.1357989 1.2745535
41.747395 6.2048926 1.1572289
42.341808 6.1258593 1.2815567
42.82386 6.1944828 1.1923256
43.127956 6.277401 1.1311445
44.003796 6.0098014 1.4902565
46.348206 6.1802154 1.4038818
46.806484 6.2727551 1.3025423
53.842113 6.2001619 1.3070954
54.654354 6.1508436 1.3469406
55.775574 6.1521988 1.150643
56.222687 6.1004281 1.4296709
36.250824 6.6802049 1.3361357
36.558403 6.8191738 1.3106573
37.766525 6.664412 1.1875507
38.964012 6.538434 1.0683976
41.400871 6.5371628 1.221998
42.366478 6.5318904 1.1138213
42.943539 6.5082417 1.0502846
43.400764 6.7850785 1.0290079
46.754772 6.8972378 1.2448094
47.375351 6.9253006 1.2683606
53.765667 6.6012135 1.4348261
54.115944 6.6453919 1.2877959
55.437481 6.7210593 1.1676958
55.504173 6.8266268 1.411754
56.089325 6.573668 1.3040758
36.347343 7.3687186 1.351491
46.839397 7.0701423 1.3129743
47.255379 7.2178464 1.1871481
47.56255 7.2981982 1.2852646
54.351345 7.3484893 1.080827
54.653992 7.4294667 1.0705397
55.358635 7.1362047 1.2850299
55.601376 7.0382004 1.4523292
60.198593 7.4190288 1.3098383
6.6534691 7.7225542 1.4211901
46.743671 7.6735206 1.1657215
47.472092 7.8404312 1.2995677
47.752754 7.809855 1.4238852
53.884338 7.575273 1.3181226
54.278065 7.7727942 1.1813399
54.543194 7.7456918 1.3635997
60.245338 7.6203523 1.3254011
47.401386 8.3718281 1.2454523
47.771271 8.2051563 1.2195348
48.250538 8.3514948 1.2133826
48.506855 8.483532 1.2302445
54.153385 8.1234646 1.1041946
60.187477 8.3666058 1.3596017
48.493771 8.7587271 1.2778504
57.705811 8.7085686 1.128041
58.160233 8.7700958 1.1760428
59.153992 8.9197083 1.2848383
59.871918 8.6409054 1.3418599
60.044781 8.5446482 1.3545077
48.314068 9.1922598 1.0286919
