# .PCD v0.7 - Point Cloud Data file format
VERSION 0.7
FIELDS x y z
SIZE 4 4 4
TYPE F F F
COUNT 1 1 1
WIDTH 1577
HEIGHT 1
VIEWPOINT 0 0 0 1 0 0 0
POINTS 1577
DATA ascii
88.765503 8.4197283 3.4276099
77.361603 8.6585655 3.1235445
77.506462 8.9016438 3.1514366
77.823593 9.2551708 3.2067521
78.212624 9.7902222 3.278583
77.778976 10.444409 3.2453787
78.636475 10.413115 3.3590388
79.145172 10.420151 3.4276772
76.539017 10.864924 3.0983942
77.348396 10.846135 3.204623
78.285507 10.725442 3.3243785
79.14254 10.625719 3.4351466
76.722931 11.197666 3.1373801
77.220284 11.287391 3.2067919
77.588394 11.207082 3.2518337
78.06324 11.174589 3.3132865
76.764961 11.756267 3.168618
77.076355 11.7111 3.2070789
47.486237 12.007338 3.0024126
76.920609 12.141208 3.2070694
78.292969 12.110523 3.3846724
46.854954 13.856341 3.489331
46.914719 14.41142 3.0274315
75.995621 14.236899 3.200098
76.135048 14.216517 3.2162943
76.676186 14.150505 3.2802846
77.16317 14.185861 3.3434434
46.932579 14.754592 3.094418
47.649334 14.644766 3.0195918
46.967972 15.155375 3.1720016
47.269695 15.325119 3.1847007
47.8349 15.344775 3.1505818
48.042591 15.383925 3.1455984
49.229401 15.120577 3.0266967
49.636089 15.127294 3.0100403
75.976387 15.444893 3.2694387
76.333382 15.403343 3.3105109
76.917061 15.040187 3.3609049
46.99107 15.664145 3.2728691
47.332813 15.811488 3.2792284
47.993408 15.674603 3.2087307
48.0243 15.832031 3.239531
49.221806 15.668686 3.1430647
75.903435 15.508606 3.2644777
76.281128 15.540243 3.3124247
47.277245 16.123405 3.3466249
48.037678 16.049274 3.2838671
49.81675 16.291267 3.2525935
76.397301 16.320642 3.3749981
76.53373 16.296457 3.3898652
47.781387 16.929564 3.4817626
49.371517 16.849194 3.3885934
75.469124 16.822027 3.296622
75.716423 16.651709 3.3146744
76.242348 16.679647 3.3791828
75.055939 17.340326 3.2832727
75.612717 17.235489 3.3411672
75.413055 17.818775 3.3577323
75.66851 17.592369 3.3718765
47.087265 18.272316 3.0990462
74.746758 18.074234 3.299161
75.166847 18.056427 3.3459575
75.708031 18.259382 3.4224615
47.115482 18.986301 3.2218332
75.053848 18.596945 3.3715696
74.843285 19.131641 3.3868599
75.137085 19.198961 3.4247389
75.674927 19.272547 3.4907298
47.166573 19.693634 3.3432364
75.05854 19.804693 3.460907
47.191334 20.181511 3.4277883
49.848316 20.475229 3.4048364
50.059681 20.498356 3.4056664
62.342575 20.470152 3.1294446
74.890366 20.480474 3.4936688
75.009506 20.038172 3.4730396
49.441399 20.662907 3.4461796
49.705967 20.543903 3.4196901
50.114937 20.810238 3.461796
74.279106 21.241432 3.4874904
74.555405 21.013634 3.4988635
73.505928 22.126501 3.4786475
49.63406 22.836878 3.0103056
49.122261 24.206375 3.2160382
50.606907 24.60742 3.2681181
79.266235 25.392647 3.0817671
78.858795 26.315577 3.0982008
78.483093 26.93396 3.1021726
78.646568 26.736639 3.1042898
79.073074 26.81831 3.1431458
78.566093 27.308964 3.1298156
51.451309 30.269426 3.0413432
51.610641 30.259451 3.0420127
51.80574 30.53191 3.0753994
51.832237 33.452637 3.4086156
52.018578 33.246197 3.3876104
52.225735 33.735302 3.4463894
53.39558 33.962917 3.4921777
53.433563 43.153622 3.0265601
53.80294 44.616531 3.1495457
54.188915 44.923904 3.1818814
54.041203 45.096436 3.1923862
53.559914 45.551102 3.21842
54.352783 45.639965 3.2419448
54.516434 45.988602 3.2730341
91.345589 55.613087 3.4469228
71.436661 -22.682026 3.7374535
71.298531 -22.25033 3.6785479
86.613678 -22.290882 3.9800878
65.45063 -21.659561 3.9816866
65.459023 -21.226358 3.9182606
65.997192 -21.13966 3.9582911
64.885696 -20.331881 3.7305651
86.724045 -20.475655 3.8878202
65.412292 -19.564896 3.66993
65.526337 -19.289371 3.6416135
66.928024 -19.399055 3.8056927
67.108589 -19.449417 3.83251
68.979828 -18.355307 3.9004164
106.43185 -18.215622 3.7938538
106.47241 -17.715576 3.7839248
64.594055 -17.152189 3.9748344
64.762573 -16.733646 3.923691
65.257225 -16.604788 3.9652195
74.91375 -16.50112 3.5147948
59.321121 -16.0604 3.8474679
65.355316 -16.313578 3.9289472
65.701607 -16.252602 3.9651141
65.905502 -15.934058 3.9402585
66.177841 -15.836419 3.9621925
61.543907 -15.261515 3.9150784
78.211044 -15.270588 3.816267
58.986988 -14.893925 3.5499291
59.071163 -14.967483 3.5747788
60.841553 -14.753338 3.7190685
65.462547 -14.576367 3.6570601
70.118736 -14.654682 3.5902002
60.861359 -14.142237 3.5887454
61.101662 -14.04931 3.5987353
65.627167 -14.065001 3.5988476
70.227272 -14.262218 3.5604198
62.058121 -13.55689 3.6225014
70.256317 -13.984256 3.5331249
44.949265 -13.46277 3.9241152
63.881012 -12.326319 3.6582313
81.066574 -11.720269 3.9510446
65.172539 -11.018472 3.6502357
65.219826 -10.986804 3.6536374
72.369904 -10.52809 3.5036912
72.7397 -10.918144 3.5965686
73.476166 -10.987937 3.7192879
66.691742 -10.033541 3.786447
65.758865 -9.7014999 3.5476012
66.670952 -9.8715258 3.7576478
73.160568 -9.7228432 3.5625286
72.959198 -9.4934549 3.5113928
73.017044 -9.2756033 3.5035362
31.064983 -8.6574993 3.9822724
64.20591 -8.8645773 3.6219294
73.277748 -8.9456682 3.5207958
74.102768 -8.026083 3.591887
74.777451 -8.1728144 3.7152429
79.418518 -8.1491594 3.5408144
66.304207 -7.8275871 3.9430122
74.357407 -7.6787238 3.6117439
74.431335 -7.284626 3.5991249
74.592941 -7.2801285 3.6262889
75.858841 -7.3440905 3.8461871
76.137947 -7.1793303 3.8843124
65.930405 -6.6167507 3.6708701
66.021255 -6.8064528 3.7209384
74.478241 -6.713728 3.5725107
74.667374 -6.5345788 3.5945873
82.545296 -6.6866231 3.9148412
74.727516 -6.4330711 3.5991855
75.129974 -6.398345 3.6666033
75.58091 -6.3317437 3.7408473
76.653297 -6.4342766 3.9319119
80.699677 -6.0962925 3.6340513
81.917152 -6.0256066 3.8027444
82.526207 -6.2594056 3.8966908
80.713387 -5.9486127 3.6306438
81.938614 -5.9273791 3.8023524
37.909279 -4.6598372 3.7973762
35.317123 -4.1916437 3.6753838
37.676086 -4.4247913 3.8325429
35.480911 -3.9751654 3.6289074
14.073135 -3.0606003 3.7411094
13.988213 -2.5088861 3.7400584
14.145641 -2.7766263 3.7286503
13.785919 -2.3085899 3.7573757
36.909599 -2.1299963 3.8719501
36.834389 -1.3644682 3.8608179
25.347755 -0.54665697 3.5647233
33.567062 -0.67895412 3.8992596
37.376095 -0.74117905 3.7104537
37.960388 -0.59926653 3.563659
25.28138 -0.2231279 3.5701671
37.451958 -0.16915986 3.6811032
38.156063 -0.21059608 3.5084603
37.809883 0.25571391 3.5885398
31.464386 0.77597296 3.5139689
24.20265 2.4085505 3.7089911
23.955366 2.8992269 3.745142
24.238859 2.6133385 3.7048693
23.946928 3.1628332 3.7480567
24.163601 3.1407874 3.7182617
24.780994 3.4366319 3.6364088
24.430378 3.892139 3.6888902
24.841736 3.5833018 3.6295271
24.373762 4.2112989 3.7005172
24.684814 4.4234686 3.6611295
33.366833 4.416779 3.9942012
33.730896 4.4539847 3.9212484
14.443375 4.6563754 3.6531124
23.923889 4.9084578 3.7717617
24.115114 4.6607752 3.7419479
33.797043 4.7264552 3.9190216
35.171577 4.9610906 3.6508346
35.600018 4.8166995 3.5573394
22.897667 5.4039092 3.9191136
24.65987 5.3136749 3.6793659
33.660534 5.0526347 3.9610868
35.240463 5.0471168 3.6411686
35.748653 5.2487674 3.5494635
37.258621 5.4556122 3.899776
38.103905 5.4882455 3.7055826
-7.245636 5.7089643 3.6990519
22.991125 5.7758331 3.9134989
24.121914 5.9444966 3.7647004
35.890743 5.600287 3.5406885
36.047424 5.6347256 3.5114341
36.969131 5.6779442 3.9836016
37.226963 5.6363826 3.9205501
37.553596 5.8318534 3.8599217
38.266788 5.7778559 3.6911583
80.88002 5.6149788 3.5388074
13.646465 6.23562 3.7456627
24.181635 6.0938268 3.7599659
37.538406 6.316833 3.9033957
38.260223 6.2569914 3.7335503
13.283375 6.6543989 3.7864785
37.38356 6.6384621 3.9668784
37.928944 6.7776685 3.8562422
38.143753 6.7825098 3.8083112
38.55545 6.9227314 3.7296162
82.695709 6.9292955 3.8177242
37.917191 7.0735383 3.8871498
38.185188 7.1846676 3.8383741
38.828857 7.2744994 3.7053192
39.118443 7.2306442 3.6368968
82.636894 7.0749393 3.8123589
76.905922 7.9619184 3.9095206
77.059952 7.9237895 3.9342823
82.438362 7.8775749 3.802141
83.436317 7.8156028 3.9399889
76.73629 8.2590408 3.893512
82.404739 8.6199913 3.815968
82.502457 8.5401297 3.827425
76.988487 9.266614 3.9834075
76.67794 10.356711 3.9890881
75.847694 10.828156 3.8799255
76.242645 10.635308 3.9332397
76.631508 10.527769 3.9910684
76.169556 11.315975 3.9624033
81.072319 12.318069 3.7607417
79.465332 13.12676 3.5849037
79.521011 13.042399 3.5882223
46.695698 13.884885 3.5120919
79.56472 13.920273 3.6360507
80.13916 13.939949 3.7112937
46.940331 14.221668 3.5651777
79.487244 14.168531 3.6384544
79.54776 14.202045 3.6479445
46.968315 14.737696 3.6824608
46.9958 15.155037 3.777554
47.012306 15.398458 3.8333032
80.43074 15.353403 3.8201303
80.813828 15.388761 3.8708382
47.106083 15.768042 3.9126601
47.510746 15.77777 3.881732
48.911766 15.972816 3.8329532
49.409134 15.805856 3.764312
49.529537 15.795839 3.755734
78.093712 15.687083 3.5443602
80.422577 15.531127 3.828454
47.056694 16.094204 3.9940057
48.898167 16.016415 3.8444734
49.017353 16.022284 3.8391008
48.158497 17.462334 3.5729599
47.178001 18.900074 3.9265659
47.204193 19.139156 3.9750295
59.597656 19.829683 3.5744498
60.444859 20.127192 3.6938896
47.219887 20.807384 3.5368228
74.71994 20.887703 3.506717
75.321411 20.752918 3.5616367
47.251419 21.320663 3.6262603
49.186169 21.485722 3.6004047
50.265102 21.047979 3.5033228
75.133057 21.00502 3.5605156
76.048904 21.155806 3.6721234
76.894379 21.205793 3.7694893
74.705627 21.6782 3.5675049
76.272263 21.743248 3.7414544
78.289124 21.794136 3.9691269
47.328411 22.444963 3.8229146
50.558712 28.34202 3.8227437
47.171192 28.826416 3.9157231
50.761776 28.782598 3.8889468
51.356705 28.753065 3.8878345
52.44701 28.996347 3.9352517
47.310585 29.116606 3.9559727
50.942596 29.018587 3.9248714
51.015873 29.256248 3.9606628
51.677483 29.231937 3.9619164
52.283913 29.210167 3.9651465
52.640526 29.186771 3.9663978
52.783356 34.672466 3.5621958
53.137482 34.718037 3.573622
52.413948 35.003292 3.5939157
52.517857 35.309486 3.6305101
44.771057 36.048111 3.6899536
93.25634 55.887604 3.5526667
93.690292 55.87989 3.5745077
93.109787 56.093674 3.5523138
21.717411 -24.612474 4.1647286
19.532562 -24.455751 4.3219314
21.751785 -24.055445 4.1158571
21.371971 -23.725883 4.1184435
21.683342 -23.931646 4.1109667
20.674261 -23.376497 4.1453061
20.906479 -22.864506 4.0862441
20.96413 -22.069153 4.0194964
21.106689 -22.298782 4.0258274
20.310837 -21.665781 4.0420184
20.709099 -21.903465 4.027492
65.353157 -21.935144 4.013473
69.788376 -21.722826 4.4474807
19.899944 -21.442467 4.0591702
20.065563 -21.49464 4.0493555
70.59375 -21.215624 4.4728427
63.279629 -19.915354 4.3220787
69.634583 -19.360966 4.1120043
64.207397 -18.958706 4.2486415
63.920692 -18.198824 4.0794435
64.29203 -18.03632 4.0936971
64.838669 -18.316238 4.2084298
64.164742 -17.922644 4.0586338
64.747169 -17.340721 4.0267758
63.294758 -16.59691 4.4270005
65.664406 -16.653265 4.027164
72.360153 -16.83552 4.1515079
73.528847 -16.690174 4.2981663
63.413689 -16.340868 4.3896198
63.812809 -16.37944 4.4531817
69.58152 -15.240425 4.3833251
70.029404 -15.138607 4.4410148
69.979118 -14.768188 4.3803535
71.294716 -13.767198 4.4667954
62.49194 -13.377375 4.2478781
70.456665 -13.194046 4.2470312
71.69722 -10.068017 4.1024685
67.206841 -9.6426802 4.4542723
71.871704 -9.6749887 4.0950832
72.112259 -9.6406088 4.1378956
72.8927 -9.6362295 4.2884779
66.466263 -9.0319109 4.1755495
72.147003 -9.4540405 4.1259584
30.747608 -8.7804232 4.0428419
66.412971 -8.8261995 4.128705
78.326096 -8.3271055 4.326952
27.721018 -7.871057 4.4693093
30.506096 -7.7265024 4.0030079
77.903419 -6.5673137 4.1556706
77.654884 -6.23102 4.0955429
77.632179 -5.9606848 4.0783143
31.38155 -2.6480446 4.4102397
-14.004925 -2.2907729 4.2007904
-13.981213 -2.053195 4.196475
6.802999 -2.1630404 4.466342
7.132843 -2.4736383 4.4373779
-13.885387 -1.3294028 4.1821976
32.136944 0.13238142 4.1877489
32.344742 1.2101625 4.1408057
86.627426 3.3947165 4.335907
86.340958 3.7096629 4.2962809
19.971817 4.2811828 4.3004961
33.161125 4.3098025 4.03229
85.971687 4.2971644 4.2470422
86.205894 4.2124882 4.2798667
86.61084 4.0805197 4.3368282
6.3306122 4.9165769 4.4763379
7.5863762 4.9531641 4.3491588
34.76437 4.6181302 4.4375224
35.20591 4.7889748 4.3414378
35.806782 4.9064841 4.205338
85.109512 4.7944851 4.1283641
7.6081142 5.1951427 4.3480425
35.852116 5.2461286 4.2157311
36.062523 5.2193618 4.1643529
85.269951 5.0979738 4.1541948
85.659927 5.3308849 4.2121477
36.104416 5.6247787 4.1817122
85.447937 5.5801754 4.1849666
85.761734 5.9681268 4.2344365
19.866459 6.4688096 4.3486567
84.969604 6.0485382 4.1234074
85.35199 6.0071507 4.1769452
19.950924 6.5752692 4.3394723
84.550598 6.9707708 4.0792127
85.172562 6.6565304 4.1614275
84.395355 7.0483875 4.058794
35.711159 7.7350011 4.4462433
37.255043 7.7069621 4.0980973
84.286606 7.6418324 4.0551953
77.552887 8.0017376 4.021966
78.5961 8.201786 4.2090874
84.819801 8.7457657 4.1545415
77.201523 9.231637 4.0176454
77.846748 9.1282015 4.1217227
84.2332 9.4998188 4.0927315
77.195694 9.5829649 4.0341091
78.871391 10.771397 4.3765125
79.18161 10.851255 4.4324241
76.447586 11.702106 4.0318041
76.867943 12.070191 4.1233664
75.801247 14.227069 4.1071153
76.187111 14.14978 4.160955
74.995827 14.995605 4.045496
75.336494 14.845662 4.084837
75.882828 14.82738 4.166502
77.840256 14.954683 4.4784479
75.047798 15.249335 4.0743508
82.566673 15.343576 4.0939107
47.063534 16.311565 4.0451174
75.443398 16.460903 4.2362895
75.509232 16.386126 4.2395244
82.306183 16.036943 4.0951314
47.094604 16.802998 4.1599016
74.721893 16.786972 4.1597438
75.355759 16.780815 4.2514987
47.118347 17.245262 4.2640796
74.712051 17.319977 4.2069249
81.075836 17.207533 4.0026979
81.504295 17.208193 4.0563359
47.150768 17.69742 4.3705087
74.727875 17.947292 4.2675505
75.039436 17.842926 4.3020492
47.175804 18.097656 4.4654036
74.457832 18.345757 4.2675061
74.689804 18.228609 4.2887974
75.057869 18.22616 4.3404903
80.938576 18.325825 4.0508747
47.212772 19.328232 4.0141053
74.753838 19.265354 4.3980584
75.042793 19.195419 4.4311762
47.228588 19.71196 4.0936813
74.390549 19.605762 4.3820939
74.65918 19.585993 4.416769
47.322433 21.33194 4.4304957
57.812286 23.784517 4.1753979
76.869698 25.721397 4.1222806
52.730465 29.483116 4.0120478
51.067616 29.737976 4.0327506
51.947136 29.703278 4.0349617
52.112324 29.533768 4.0114622
52.515087 29.712236 4.0432448
52.877636 31.23732 4.2768531
71.428329 -45.135391 4.6370344
71.743179 -45.473568 4.6840143
64.376465 -22.878162 4.9838352
64.638885 -22.208523 4.8873534
65.088158 -22.028561 4.9026752
69.923172 -22.153114 4.5217981
65.173027 -21.993864 4.9056482
55.835266 -21.355028 4.8563142
64.773956 -20.781204 4.6413732
65.142006 -20.85107 4.6953168
64.765907 -20.413511 4.5739665
60.840664 -19.65168 4.8108649
64.433884 -18.03071 4.8825121
64.888489 -17.514009 4.839756
64.946037 -17.468496 4.8387508
65.031448 -17.197092 4.7959023
63.710815 -16.924896 4.5523124
64.13356 -16.557978 4.5353727
64.953362 -16.813833 4.7067523
65.104073 -16.662188 4.698658
70.353577 -16.920465 4.7520905
64.157471 -16.479143 4.5225945
65.105148 -16.411484 4.6485558
70.389473 -15.701969 4.5798965
64.811295 -14.735945 4.9637628
64.938248 -14.430252 4.9184351
65.204926 -14.258763 4.9304242
64.796349 -13.57981 4.7043228
65.017731 -13.66282 4.7644482
71.714828 -10.084715 4.8655009
74.898148 -8.7047653 4.6001034
75.631836 -8.7375164 4.7502961
27.314123 -8.1931467 4.5575948
27.504723 -8.0377445 4.5159082
25.826454 -7.915297 4.7850661
82.098106 -7.4183908 4.9279785
80.765366 -6.6642351 4.6589303
81.011261 -6.5243902 4.695334
81.728653 -6.804028 4.8338346
82.002014 -6.5640626 4.8705797
81.065094 -6.4366546 4.7007017
24.717894 -3.6964245 4.7685943
16.779564 -1.7796844 4.7595482
17.164783 -1.6317282 4.7042298
23.109264 -1.9734181 4.9973783
5.3582611 -1.0582306 4.5991583
33.788567 -1.2821406 4.6053834
4.3758659 -0.72895169 4.6956882
5.1791801 -0.89300799 4.6155424
16.922258 0.34430468 4.7138162
32.24543 0.2340024 4.9582014
17.084642 0.85544705 4.6880941
30.064352 0.91241503 4.6176853
17.177616 1.0389017 4.6743641
17.758709 1.3956206 4.5931292
29.983366 1.2183644 4.6347342
17.704723 1.6495502 4.5998864
29.135254 1.5425489 4.8129044
1.2130356 3.9716365 4.9942713
5.4738579 4.153017 4.5612946
33.562183 4.4601765 4.7177935
34.0728 4.4233289 4.5934381
23.943718 4.9696274 4.8533864
34.192749 4.5377612 4.5702491
24.735477 5.4150991 4.7291946
88.310303 6.8707232 4.6079326
82.434875 7.401247 4.8459883
82.597389 7.2287664 4.8692446
88.44313 7.463953 4.636107
82.393326 7.6036553 4.8449869
82.513939 7.7962356 4.8721161
88.408989 7.6432076 4.634376
35.351212 8.2660332 4.5783048
81.283829 8.3447304 4.6776395
81.542336 8.1629009 4.7157741
82.425201 8.1972132 4.8700304
82.555458 8.1256628 4.8902063
81.285149 8.7027931 4.6913242
6.1446304 9.3432484 4.5359674
82.621132 9.3449545 4.9463191
79.27063 13.772682 4.621685
79.889099 13.81714 4.7241178
79.184402 14.204398 4.6369152
79.586533 14.34903 4.710906
47.195129 18.334927 4.5215211
47.214344 18.681593 4.6044102
47.247456 19.205803 4.729918
47.823273 19.002033 4.6436944
47.280396 19.765913 4.8647838
75.37561 19.830706 4.5393343
47.305695 20.149652 4.9573212
74.721016 20.831818 4.5512323
75.05677 20.945881 4.6078477
75.604202 20.894567 4.6764631
74.247482 21.224499 4.5294347
73.873795 21.646784 4.5257068
74.13195 21.696304 4.5643787
75.896599 21.544724 4.7817888
76.230583 22.721268 4.9473505
47.854965 23.287165 4.825367
46.608952 27.338715 4.7187057
46.663307 27.90999 4.8195715
49.388813 28.426691 4.8631902
49.689465 28.429178 4.8611903
50.142357 28.377747 4.8491545
46.688431 28.586182 4.9403243
49.171806 28.517288 4.8818941
49.913658 28.968882 4.9589343
50.268543 28.54632 4.8797059
50.361778 29.062767 4.9745798
45.324528 34.821152 4.8167276
45.577595 34.59507 4.779706
91.304749 42.317837 4.9870396
91.234344 42.550743 4.9947815
53.404316 43.70042 4.6045017
53.554859 43.888199 4.6289153
53.699245 44.023773 4.647306
53.86758 44.691353 4.7270203
54.015774 44.881516 4.751853
85.679192 -44.720787 5.4913268
85.70623 -44.427845 5.469873
14.129814 -28.525187 5.0750217
63.909527 -23.352024 5.0256071
64.089157 -23.316471 5.036623
61.07048 -20.534451 5.0336599
86.769325 -20.929962 5.3032846
63.32196 -20.427134 5.2530704
63.637043 -20.085894 5.216589
18.664885 -19.781437 5.4792309
64.404556 -19.939514 5.2814884
63.827343 -19.234118 5.056673
64.309105 -19.497824 5.1749873
65.898102 -18.752911 5.2390604
71.70285 -18.318838 5.17102
64.296844 -16.16593 5.2033734
64.418686 -15.963214 5.1762819
64.437607 -15.39098 5.0467834
64.659416 -15.252609 5.0537839
74.585846 -13.317361 5.0014992
71.903244 -11.673918 5.1127806
77.265953 -11.56997 5.3271728
71.785873 -11.236523 5.0288172
76.341919 -11.014206 5.0935783
76.540451 -10.821905 5.1143427
11.758598 -2.3331611 5.458046
14.596344 -2.4410739 5.0708838
0.41483688 -1.7389848 5.111599
0.54192734 -1.362747 5.0939527
13.631363 -0.54038417 5.1745744
13.501995 0.15281712 5.1854539
30.254602 0.87933999 5.4453006
31.053122 0.66081673 5.2492561
21.517452 1.9555808 5.2345428
22.135292 2.4222531 5.129509
92.947937 3.547333 5.240952
93.146591 3.7726722 5.2699342
84.405289 4.3132296 5.1275358
84.44281 4.7500339 5.1402535
84.644684 4.565764 5.1734924
85.037994 4.8427687 5.2474332
20.967907 5.3329287 5.3694959
84.824493 5.2890925 5.2167435
85.248878 5.2671528 5.2916627
93.278076 5.3842144 5.2970142
21.107447 5.6032329 5.3517456
84.218025 5.6935863 5.1168046
84.721619 5.5686111 5.2035041
93.375763 5.6085796 5.3127203
12.147659 7.0084538 5.4013023
78.410126 9.9332743 5.2127962
-2.6718674 10.026374 5.4269986
78.380936 12.173985 5.3642273
82.340088 12.654852 5.0558534
83.02861 12.599951 5.167449
77.362564 15.831382 5.4940667
74.377182 16.762646 5.0619593
74.869499 16.680515 5.1380224
75.16362 16.620981 5.1827283
74.399849 17.326342 5.1305566
74.572174 17.219791 5.1477165
75.334969 17.356089 5.2945285
74.188515 17.750835 5.1446152
74.572563 17.706244 5.2041693
74.055435 18.072491 5.1606908
47.319302 20.333254 5.0016084
47.411469 21.699078 5.3333969
47.444206 22.145742 5.4423819
77.052917 23.388601 5.1256719
77.216812 23.882597 5.1987042
76.69487 24.085552 5.1515465
76.0774 24.86853 5.156352
76.553642 24.699442 5.1988435
76.73999 25.075483 5.2633204
50.489506 29.237898 5.0066342
50.739975 29.331974 5.0239515
50.980099 29.51413 5.057869
51.057663 29.730751 5.0980864
48.77655 30.254944 5.2041407
51.277504 30.138599 5.1743374
51.687141 30.319477 5.2102146
49.534378 30.898893 5.3157601
51.92424 30.620731 5.2678728
52.239296 30.718756 5.2892294
52.572243 30.534618 5.2589855
48.378296 31.321087 5.4037576
52.694115 31.385227 5.418417
52.844635 31.787418 5.495203
91.798996 42.433681 5.0326319
91.434624 43.06432 5.0398707
21.949389 -24.029753 5.5196533
22.037233 -24.138163 5.5217476
18.485954 -23.860546 5.8759422
19.254509 -23.692698 5.7751155
19.81876 -23.664721 5.7107148
20.115788 -23.632551 5.6752234
18.807123 -23.208267 5.777174
19.000637 -23.343357 5.7688293
20.793068 -23.328367 5.5713701
18.84654 -22.831411 5.7366114
18.195011 -22.29347 5.7590661
19.058552 -22.264465 5.6590672
62.276993 -22.469122 5.5918479
64.503395 -22.258526 5.7936687
18.194521 -21.871311 5.7201176
18.52985 -21.911541 5.6857119
19.01984 -21.953072 5.6341472
64.341278 -21.729063 5.658957
17.949715 -21.083288 5.676816
18.647568 -20.505831 5.5447831
18.656298 -20.175451 5.5146241
74.211418 -18.949789 5.6637144
64.220688 -17.699139 5.5558319
90.314117 -17.608913 5.5289826
106.65214 -17.783819 5.76087
64.539886 -17.388874 5.5323076
90.339859 -17.455887 5.522851
93.221436 -16.692009 5.8597345
93.638016 -16.7139 5.9167337
68.718536 -15.324902 5.8521404
70.171738 -14.261065 5.9583583
69.844612 -13.580909 5.7591496
70.002121 -13.522128 5.7839723
69.955788 -13.386213 5.7487345
72.285034 -11.475517 5.9853463
80.818108 -7.3841023 5.7192931
8.671032 -2.6721542 5.8876834
-4.2979355 -2.1072469 5.5968647
24.087847 0.49282396 5.8703356
23.81114 0.6005851 5.9276514
29.15049 0.53425443 5.7178636
8.8620758 1.400035 5.8151774
8.8901062 1.5480576 5.8107429
-6.6237984 2.3131332 5.795764
-6.6258583 2.629715 5.7947474
-5.7935867 2.8139882 5.7093191
10.783825 2.9915595 5.5494356
19.901962 4.3090229 5.5334263
20.04097 4.4054108 5.5110302
9.7126999 4.9127808 5.7058549
20.03635 4.5255461 5.5137348
19.432533 5.2110734 5.62953
23.89418 5.7451396 5.9838867
24.302998 5.9347773 5.9065104
82.379936 7.8735852 5.9218669
81.144333 8.2595139 5.681541
81.837509 8.2002344 5.8229837
81.920494 8.6487217 5.8609667
88.159607 9.4344063 5.9078312
88.244888 9.5868483 5.9276915
81.808395 20.887012 5.5591888
82.653397 21.211464 5.7124014
75.783226 21.834576 5.910121
75.430069 22.241047 5.9066892
75.535156 22.197887 5.9176073
80.894714 22.253515 5.5470324
75.320534 22.512325 5.9250488
83.41333 22.808897 5.9626203
47.925217 23.285124 5.7030311
78.859512 25.731422 5.6085367
77.699852 26.304955 5.5191898
77.796478 26.596184 5.5631433
49.843807 28.629959 5.9423289
45.947121 31.991304 5.5719161
15.203266 -23.245171 6.1870947
69.301392 -16.624279 6.2375317
94.248619 -16.814407 6.0042191
69.009666 -16.134787 6.0772519
69.172287 -15.740498 6.0306492
70.216621 -14.6153 6.0347652
70.776596 -14.689835 6.1732135
70.239166 -14.474708 6.0133266
76.570892 -12.665526 6.2631636
72.335754 -11.689602 6.0306563
72.557121 -11.287827 6.0250611
6.3934746 -1.6625584 6.1835585
4.7526741 -0.014683545 6.3894463
23.21895 1.9856195 6.051383
23.173521 2.2564232 6.0625582
23.117861 2.5230846 6.0762596
14.990562 3.1371903 6.3671532
15.306532 3.3083205 6.3137808
23.406036 3.087213 6.0224891
15.186197 3.7246814 6.3379426
15.355049 4.4534874 6.3169098
15.374065 4.5869298 6.3154068
22.669239 4.9120426 6.2115331
22.871859 5.1594748 6.1763911
23.212267 5.3781877 6.1125164
22.915825 5.5949612 6.1802044
23.377876 6.391717 6.1127286
16.899162 6.5698118 6.0920768
81.657661 12.484527 6.0341783
81.432739 12.846785 6.015429
81.545776 12.606394 6.020546
81.266159 13.763746 6.0515795
81.753784 13.715181 6.1432934
82.029976 13.727897 6.1984715
81.916763 14.271461 6.2182665
82.482483 14.745461 6.3659401
76.322617 23.971025 6.2733469
76.304459 24.203888 6.3015394
75.734344 24.587687 6.2663684
76.120583 24.599268 6.3264847
76.532356 24.704737 6.4035053
49.391262 28.999088 6.0289259
47.457993 29.324484 6.1404352
47.759445 29.401789 6.1492014
48.112679 29.471725 6.1557617
48.87587 29.026169 6.0430298
49.131245 29.014032 6.0360684
49.705841 29.147064 6.0575237
50.691463 29.192198 6.0602503
49.287529 29.666906 6.1768484
50.206024 29.814507 6.1998315
51.876846 30.35338 6.3186278
52.103279 30.098492 6.2637777
47.01236 30.843552 6.4820433
50.694168 30.669636 6.3862028
51.47398 30.843018 6.425024
51.585426 30.862753 6.429842
52.214993 30.943254 6.4519696
49.713909 31.14719 6.4970632
51.298115 31.048973 6.4700756
52.374538 31.03664 6.4742508
12.419275 -24.638954 6.632515
12.756935 -24.92062 6.6192918
62.836166 -23.174194 6.7418919
62.70903 -22.488382 6.5491529
66.030777 -20.64897 6.5499072
18.967972 -19.641102 6.8691206
19.100288 -19.871082 6.8737817
98.99231 -16.973608 6.6528416
-13.654217 -0.11552426 6.5291338
2.9198608 0.68884981 6.6356959
20.366905 2.853678 6.6533728
20.69632 2.9429953 6.585568
24.46312 2.8477287 6.883112
20.749012 3.0544593 6.5758042
24.155815 3.266082 6.9656892
25.004232 3.3039534 6.758831
20.234945 3.8077848 6.6932869
24.702913 3.6450741 6.8398547
12.621258 4.4697032 6.7874823
13.055359 4.1373711 6.7091131
20.053406 4.3097148 6.7399158
24.384066 4.3038225 6.9347434
24.621183 4.1706562 6.8730779
12.605072 4.6165071 6.7920132
20.219688 4.9972153 6.7204018
24.320604 4.6205554 6.9594088
24.666374 4.6718402 6.8770084
11.8442 5.1505284 6.9299178
20.20092 5.1134119 6.7271333
81.600655 7.8754482 6.8181453
81.414993 8.2164974 6.7915745
81.528717 8.3788424 6.8283076
81.22142 8.5462112 6.7634373
94.139587 9.7791681 6.9622941
79.291847 13.748904 6.726162
90.380157 15.148339 6.5302343
81.906326 17.824047 6.5253983
81.919556 18.107857 6.5549479
83.252846 18.454699 6.8354769
81.398842 18.667051 6.5139608
82.701538 19.912395 6.8763371
80.175865 23.75769 6.8648911
80.022774 24.103668 6.8817239
79.34201 24.662001 6.8401346
87.68631 24.624851 6.7515001
46.728722 26.642033 6.5980964
46.767616 27.247189 6.7475443
77.740028 27.685696 6.991621
46.817341 28.003569 6.9347672
49.811497 31.19906 6.5076241
51.663082 31.208673 6.5068064
48.150631 31.904499 6.6854019
51.052731 31.828545 6.6420469
50.869228 32.092915 6.7003975
52.485699 32.276505 6.7504373
52.588493 32.370182 6.7724519
45.515556 37.604313 6.5950108
52.760063 47.851414 6.7618542
20.559261 -24.674593 7.2230272
20.199108 -24.310646 7.2266836
21.382759 -24.237511 7.0575695
21.609489 -24.243425 7.027914
62.729027 -24.264105 7.0129867
20.233307 -23.768499 7.1558037
-0.55056763 -2.8652687 7.156064
-2.7327003 -2.403125 7.4478927
-2.2030106 -2.1838586 7.3717752
-2.5655556 -1.6089309 7.4132986
-2.5240021 -1.4112329 7.4049664
-0.73937607 0.91853857 7.1370463
22.781166 1.3276598 7.2834783
23.16194 1.4734843 7.1901207
23.133717 1.7422937 7.1981392
22.741673 2.195852 7.2975793
23.097849 2.7046242 7.2156601
24.056953 3.9326031 7.0043564
-1.6734886 4.2053633 7.2596726
22.432066 5.3041525 7.4404287
22.263313 5.6705275 7.4944439
23.345184 5.9738684 7.2448192
11.540318 6.3701172 7.0026793
11.32225 6.6972213 7.0465865
88.29776 8.9029865 7.2026529
88.571709 8.6499615 7.2504926
94.988693 8.7048225 7.0836258
95.170685 8.8937302 7.1201811
96.283173 8.7425003 7.3126373
88.049179 9.0313873 7.1556258
95.311508 9.2235527 7.1531343
95.52449 9.2740278 7.1918116
94.651405 9.6754961 7.0490866
95.149666 9.5635834 7.1334796
94.605606 11.796756 7.1071672
81.482651 13.228773 7.1759982
81.53344 13.078302 7.174264
82.20768 13.215563 7.3421807
81.837585 13.523252 7.2842855
82.385468 13.908436 7.445261
82.382851 14.030545 7.455874
81.830643 14.988599 7.4220371
75.405998 24.492508 7.394321
75.664108 24.453814 7.4332414
75.488838 24.767759 7.4539895
75.502686 24.958023 7.4877639
81.28537 24.927492 7.1907363
75.394882 25.0886 7.490747
81.167099 25.16048 7.1996984
80.870285 25.715353 7.2198319
81.001122 25.725277 7.2422795
78.993134 26.619314 7.0377975
77.808136 27.769096 7.0133057
78.075073 27.588848 7.0283213
46.836594 28.339716 7.0182638
77.379921 28.254847 7.0178428
77.687683 28.12521 7.0448456
46.865486 28.645926 7.0939283
49.20821 28.794401 7.057518
49.635902 28.95874 7.0913877
50.088585 28.994932 7.0938911
77.378311 28.648548 7.0730047
47.895573 29.186729 7.1922755
48.198799 29.23847 7.1961908
48.724792 29.22172 7.1777086
49.427254 29.031225 7.1136785
49.874798 29.062866 7.1143022
50.187134 29.429647 7.2043266
47.557388 29.810009 7.3612804
50.374374 29.595901 7.2450719
50.525707 29.635136 7.2537966
47.334724 30.087921 7.4392753
50.693901 30.562046 7.4911919
47.708267 33.659649 7.0772791
52.959877 50.620735 7.1799955
89.167534 -46.694122 7.979147
89.167831 -46.211464 7.9277678
7.4356689 2.423408 7.6703253
21.799717 2.2027321 7.5288053
21.477751 2.6161947 7.6119003
21.18549 3.2643502 7.6925802
-5.5252151 3.8646181 7.7869425
15.4599 5.0052981 7.7072697
21.970261 5.2096786 7.549293
20.243263 5.8439431 7.9900331
22.181429 5.8550649 7.5212331
8.3662605 6.361414 7.5461211
21.681683 6.0606856 7.6500769
6.0084076 6.5145297 7.9530067
8.2162666 6.5437145 7.5750923
90.329994 12.818828 7.8095551
90.611069 12.559192 7.8531432
90.361763 13.24921 7.8401513
90.387337 13.769877 7.8756146
82.608238 14.384065 7.5403032
90.411781 14.287866 7.9117775
82.336792 14.680664 7.5065742
82.643692 14.584103 7.5672364
90.450775 14.739388 7.9478145
90.474152 15.201303 7.9821715
82.3097 19.005486 7.9666557
80.849144 21.180723 7.9353867
80.865204 21.567942 7.9904881
76.069519 24.563456 7.5225277
76.63549 24.664373 7.6394806
50.763916 30.683249 7.5221481
51.245739 30.813738 7.5542221
46.886257 31.33551 7.7705584
50.997116 31.156515 7.6430445
51.436649 31.168488 7.6457415
51.702717 31.213566 7.6580639
45.407307 35.726025 7.5859156
45.358452 36.465012 7.7469616
45.467278 36.541977 7.7602406
85.502373 -53.529934 8.4099922
19.622833 -3.8371918 8.1628561
13.451824 3.8388367 8.1061869
14.139633 7.2849631 8.0398045
115.2547 10.496395 8.4738789
115.27893 10.94303 8.4827824
91.963043 11.903558 8.098649
91.829773 12.22958 8.0872383
81.828575 12.930593 8.378829
91.319252 12.587154 8.0002632
91.702675 12.560282 8.0778236
81.694923 13.105845 8.3614874
90.475266 15.497216 8.0018272
90.496475 15.80509 8.0267563
90.507996 15.8136 8.0295916
90.539879 16.200838 8.0624657
84.68605 16.915546 8.2580862
85.466156 16.770729 8.4193125
85.730362 16.767548 8.4787569
85.246307 17.316078 8.4245863
90.587708 17.224201 8.1448631
90.605957 17.625319 8.1781025
82.890373 20.130938 8.2258368
83.721588 20.244514 8.4162235
82.19416 20.981277 8.18606
82.006203 21.301901 8.1884909
81.21904 21.62356 8.0697231
82.569305 22.285046 8.4329166
87.408249 23.400122 8.0842409
87.704544 23.94911 8.1940727
79.338913 24.008665 8.037075
87.277527 24.171198 8.1404305
87.535202 24.006508 8.1695023
87.314117 24.64571 8.1969643
79.229958 25.979391 8.3172598
79.690056 25.902283 8.3900461
78.488419 26.291069 8.2316122
78.951782 26.3209 8.3200626
79.052986 26.151993 8.3118687
79.633163 26.025963 8.398633
45.97242 32.797146 8.174366
46.054764 32.955883 8.2109528
47.100887 32.510071 8.0601387
51.991764 32.744068 8.0548849
52.111992 32.626045 8.0252132
51.743584 33.06171 8.1356449
52.25885 33.103882 8.1499939
46.035507 33.776909 8.4184771
46.165653 34.002975 8.4704905
46.653328 37.955959 8.0362911
46.567692 39.104576 8.288516
85.378754 -56.888058 8.7869682
85.404388 -56.211166 8.7105722
85.428215 -55.565231 8.6378136
85.465652 -55.201691 8.5989332
115.67416 -16.167713 8.916995
-12.621853 -2.1517034 8.8020935
16.302784 7.1855712 8.9945021
16.50106 7.417264 8.9562206
18.217531 7.2759194 8.5364599
17.479885 7.7524056 8.7352791
17.625053 7.5908055 8.6930246
96.410774 8.8578968 8.9118805
96.226959 9.1299801 8.8813791
94.768097 9.7153559 8.5930529
95.494812 9.731822 8.7467546
95.909286 9.6723738 8.8321009
87.354088 17.466066 8.9147463
85.659393 17.88092 8.5749769
86.859818 18.855114 8.94415
84.772369 19.272699 8.5297022
83.668793 21.914005 8.6116076
82.027512 24.390947 8.6127787
81.733353 24.651665 8.5924788
81.387329 25.466595 8.6440945
81.679825 25.299299 8.6758099
81.214111 25.578012 8.627449
85.261612 -59.604618 9.0947695
85.953674 -44.903694 9.466032
15.321487 -21.498608 9.2069359
14.005135 2.8438396 9.448081
98.199829 11.830262 9.3944235
90.448875 12.726711 9.2511473
90.779503 12.551772 9.3191099
91.184853 12.549952 9.4165392
90.466293 13.22802 9.2891855
90.488235 13.669754 9.3252697
90.507065 13.899596 9.3462095
90.524231 14.26659 9.3772049
90.551537 14.788676 9.4229956
90.589111 15.258155 9.4683905
90.601013 15.559752 9.495182
82.779701 16.818777 9.0693893
82.331505 17.294651 9.0164738
82.734886 17.262867 9.1140699
82.377464 17.80275 9.0944014
82.759399 17.760193 9.1843996
81.957504 18.091677 9.0284605
82.28009 18.088362 9.1081085
87.181976 18.88397 9.0189123
82.301193 19.301765 9.2800007
87.720291 20.848701 9.3499203
87.690323 21.317678 9.3961849
87.590546 21.510777 9.396554
85.839783 22.980885 9.1997013
86.073494 22.901936 9.2389126
85.319054 23.450752 9.1508446
85.835846 23.147511 9.2198105
51.230991 37.099182 9.1766939
85.882111 -46.668545 9.7026405
85.915634 -46.193085 9.6401548
85.921402 -45.694099 9.5715799
89.53508 -45.741169 9.9940691
85.936989 -45.215462 9.5071354
6.189476 6.8548117 9.6696882
101.28166 10.54207 9.995285
110.55315 10.915888 9.8788366
109.26772 11.073987 9.6552382
110.01283 11.016964 9.7855368
91.823677 12.159558 9.5463467
92.069458 12.237612 9.6105776
91.775002 12.517634 9.5567169
90.613014 15.792488 9.5168562
90.646912 16.25832 9.5633326
90.680641 16.80872 9.6179399
85.269485 18.544495 9.9178524
83.187561 19.601923 9.5389814
83.951408 20.876904 9.9052458
84.179962 20.80043 9.9499302
82.407814 21.084948 9.564539
83.907608 21.002279 9.9126062
81.859024 21.679338 9.5252123
82.040176 21.810562 9.5878773
101.28355 10.716749 10.001479
83.702614 22.350056 10.062155
83.723724 22.69656 10.119714
84.728851 22.539949 10.334777
85.044006 22.602449 10.41941
82.243294 24.827475 10.119465
81.961426 25.046772 10.093188
82.31675 25.008337 10.166037
81.883568 25.861166 10.214826
82.181137 25.597246 10.235244
81.98336 26.693607 10.38103
82.134132 26.556715 10.38994
104.5314 11.078579 10.699414
96.352081 11.676467 10.620716
96.888603 11.652353 10.750725
97.340973 11.610271 10.859359
97.900513 11.601217 10.996013
90.910736 12.466584 10.805725
90.607574 12.717258 10.741339
91.526764 12.525105 10.980438
90.588593 13.280235 10.780838
90.612892 13.801583 10.830596
90.647591 14.251657 10.878582
90.664406 14.698955 10.9226
90.693748 15.160413 10.972451
85.984253 21.620945 10.506025
92.126068 11.90575 11.102043
92.629234 11.841511 11.237686
93.269165 11.812315 11.41415
98.432343 11.57306 11.125057
98.983322 11.546026 11.258989
99.534653 11.515285 11.392956
92.053139 12.242414 11.105637
91.929977 12.502605 11.090379
90.709335 15.47129 11.005519
90.726463 15.777555 11.039174
90.75695 16.240107 11.092145
90.786232 16.717228 11.147385
90.848701 17.768173 11.272658
90.863556 18.253359 11.328786
90.885208 18.653214 11.378267
86.020248 -47.846901 11.976265
121.3886 9.61166 11.778802
101.55418 10.441205 11.844424
101.3812 10.74439 11.814007
110.67818 10.749043 11.992458
100.12399 11.49004 11.536657
100.64203 11.443473 11.661977
101.33411 11.259137 11.824284
93.950348 11.78931 11.602799
94.393272 11.764069 11.724967
94.842209 11.729714 11.848373
95.304245 11.703629 11.976116
91.280136 19.427536 11.568274
91.586334 19.252417 11.628327
91.329002 19.875849 11.632442
91.174362 20.973373 11.722838
91.754105 21.471653 11.931916
91.753426 21.646442 11.953205
89.477394 -46.071087 12.146624
111.11926 10.328821 12.075296
110.79145 10.563943 12.011617
95.775726 11.684841 12.1071
96.104797 11.616286 12.195199
105.11915 10.461438 12.728271
104.6749 10.836046 12.632286
105.19723 10.66455 12.755153
97.744354 11.731986 12.662761
98.215759 11.69028 12.792901
98.969147 11.549275 12.996974
115.63928 9.8039093 13.02631
100.57052 10.913949 13.415228
100.49744 11.415232 13.420876
100.53083 11.163749 13.416958
99.593979 11.536847 13.172468
107.22079 39.794205 13.350912
107.23441 40.233246 13.400532
107.2683 40.713722 13.458612
115.89439 -16.712812 13.606146
115.93651 -16.368378 13.59455
101.47573 10.430182 13.648098
100.97858 10.834191 13.526788
101.46622 10.603038 13.653688
101.57422 10.793577 13.693639
107.3163 41.179253 13.517873
122.14346 9.4898071 14.410148
121.48727 9.6414528 14.272498
104.17477 10.368799 14.412781
110.87714 10.19287 14.150493
111.27466 10.055554 14.24531
103.80838 10.751234 14.325917
104.31504 10.67406 14.466401
86.495331 -41.39196 14.889924
86.514114 -41.117039 14.833097
105.29607 10.315315 14.729797
115.78132 9.8308811 15.363396
116.45544 10.499207 15.550214
116.36582 10.709601 15.533994
110.83195 10.396557 16.313072
111.09421 10.133024 16.378155
110.29395 10.693151 16.171124
86.977814 -49.808243 16.882689
87.226944 -49.821697 16.928293
121.69624 9.4326096 16.833138
121.67542 9.672102 16.833382
113.51549 10.232848 17.074677
114.41817 10.167226 17.330879
115.92736 9.7471342 17.749561
116.07512 9.7700157 17.792786
115.31731 10.094742 17.586027
106.92804 37.267368 17.825914
106.9239 37.674335 17.883995
106.96428 38.115738 17.958235
107.16172 41.748333 18.554907
107.17941 42.199677 18.629631
107.19594 42.668709 18.707285
107.24612 43.169449 18.798306
107.27449 43.804848 18.90638
107.30548 44.292149 18.991943
107.31859 44.634598 19.050407
117.65436 -15.982475 -4.6836672
119.38585 -14.568539 -4.7914467
112.49398 -18.049438 -4.3615842
109.35263 -13.045172 -4.1080642
112.59106 -13.424212 -4.3279009
108.49518 -9.3837318 -4.0376172
108.52389 -9.1996689 -4.039484
91.829788 -8.2019014 -4.1992998
92.786133 -7.4142241 -4.2881289
92.785309 -6.3557916 -4.279675
90.613564 -5.6640229 -4.0518274
93.292847 -5.7092972 -4.3287721
93.500565 -5.6143136 -4.3499041
90.737976 -5.4356117 -4.06357
83.344238 -43.353794 -3.8017027
83.549149 -43.342167 -3.8069627
105.864 -17.75128 -3.9263575
105.87488 -17.475735 -3.923095
106.85561 -14.888642 -3.9562254
101.95732 -14.490473 -3.6293755
103.48706 -14.077074 -3.7255678
100.94203 -13.832353 -3.5552757
101.20021 -12.880883 -3.5626953
100.58988 -11.78392 -3.5128522
100.87119 -11.28408 -3.5281131
89.365524 -4.5735884 -3.9187624
89.745659 -4.8676434 -3.9588752
89.105217 -4.1841097 -3.891227
88.932892 -3.6960671 -3.8733449
88.895958 -3.2280183 -3.8703218
88.971153 -2.8898311 -3.8792381
89.056389 -2.6648726 -3.8891039
100.38084 -2.6663268 -3.5054102
88.812897 -2.0105684 -3.8675072
89.147308 -2.3245614 -3.9004548
100.43409 -2.3699093 -3.5119934
100.52383 -2.1449111 -3.520534
87.892715 -1.5095413 -3.775172
88.195953 -1.6914899 -3.8053846
88.537979 -1.8786931 -3.8397081
100.60486 -1.9069195 -3.5287247
102.15048 -1.6621349 -3.6390529
87.32106 -1.0996161 -3.7191997
87.578796 -1.3223219 -3.7440076
101.96844 -1.2531893 -3.6312435
102.03596 -1.2553353 -3.6359439
86.813278 -0.64881426 -3.6709902
87.069885 -0.87518895 -3.6952763
101.7382 -0.7592867 -3.6215353
86.393707 -0.15771998 -3.6333551
86.598877 -0.42153937 -3.6513338
101.43185 -0.20944344 -3.6077271
101.51376 -0.43651047 -3.6102381
86.237457 0.26287302 -3.6232021
101.31802 0.1883146 -3.6056347
85.941826 0.88584048 -3.6026821
86.048615 0.62775147 -3.609323
101.11106 0.82102805 -3.6011143
85.834351 1.2501211 -3.5983164
100.96124 1.360884 -3.5997288
101.00517 1.1339881 -3.5989046
85.696632 1.7055054 -3.5932832
100.79053 1.7501974 -3.5947411
85.548683 2.2129941 -3.5892758
100.74406 2.2157071 -3.6001308
85.417587 2.7169425 -3.5880375
100.66267 2.7515531 -3.6049421
85.355751 3.0728335 -3.5909877
100.62838 3.2976191 -3.6137781
100.44199 3.9012823 -3.6139266
100.57243 3.6810994 -3.6181207
98.768173 4.3617439 -3.5084631
99.529587 4.2836485 -3.5593786
100.47092 4.1385202 -3.621285
98.653717 4.5009274 -3.5038331
69.891663 -38.645874 -3.2192264
69.408646 -38.332577 -3.1924918
69.589302 -38.438183 -3.2016768
70.339813 -38.409771 -3.2089131
70.5616 -38.186775 -3.1968946
89.449341 -29.516773 -3.3174343
89.108261 -29.010134 -3.2793658
89.124268 -28.718483 -3.2677073
89.145203 -28.232916 -3.2482545
89.178558 -27.76907 -3.2305846
85.938438 -26.970205 -3.0403564
86.142822 -26.873821 -3.0458345
89.303986 -25.138649 -3.1326966
89.309227 -24.778931 -3.1194468
89.340607 -24.441441 -3.1085436
89.396027 -23.586355 -3.080466
89.392632 -23.417965 -3.074301
70.276176 -22.198154 -3.1070786
70.630959 -22.149118 -3.1202118
69.640404 -21.708845 -3.0331812
70.747627 -21.742462 -3.0907233
70.794327 -21.251356 -3.0508029
70.815025 -20.81418 -3.0145667
94.227402 -17.547478 -3.1864574
93.084122 -17.185778 -3.1081445
94.218201 -17.313156 -3.1808481
96.246552 -17.139767 -3.3035381
93.918686 -16.870068 -3.1529586
94.24633 -16.696592 -3.1697741
98.847816 -13.179964 -3.4104078
93.3993 -12.791374 -3.0495138
98.806633 -12.844051 -3.4040787
100.19276 -12.759046 -3.4948151
70.380066 -12.260084 -3.0076571
70.688118 -12.259426 -3.0392954
71.241318 -12.190624 -3.0912673
93.439919 -12.367608 -3.0465815
93.83728 -12.206841 -3.0705183
100.07327 -12.22525 -3.4820511
71.484604 -11.990188 -3.1003697
71.753448 -11.767977 -3.1114845
72.023819 -11.541645 -3.123121
99.986214 -11.870098 -3.4732742
72.280762 -11.297243 -3.1330714
72.509872 -11.034541 -3.1392305
72.739311 -10.769106 -3.1464331
73.006752 -10.528388 -3.1604548
73.237915 -10.299902 -3.1721826
73.526428 -10.063841 -3.1908302
73.761215 -9.8717117 -3.2068322
74.130905 -9.6273375 -3.2366257
74.395035 -9.4034042 -3.2557921
74.697838 -9.1493387 -3.2789128
74.94236 -8.9045858 -3.2961476
75.094238 -8.6517849 -3.3021653
75.188957 -8.2550898 -3.2946136
96.100693 -8.2353096 -3.1917405
75.223686 -7.7574019 -3.2760315
79.948624 -7.9774079 -3.0029082
80.268578 -7.8490429 -3.031445
80.608772 -7.6287823 -3.0601711
81.274162 -7.5521259 -3.1246932
75.301392 -7.2445474 -3.2640953
80.786926 -7.4995379 -3.0751014
81.308632 -7.4155245 -3.1253729
75.395737 -6.7443061 -3.2567749
75.468559 -6.2797151 -3.2497399
75.504135 -6.027986 -3.2460556
75.5467 -5.7446022 -3.242969
75.634529 -5.2525935 -3.2408283
75.717667 -4.7643828 -3.2400553
75.774117 -4.2678523 -3.2373748
95.666656 -4.2567077 -3.1666112
96.226265 -4.4605265 -3.2042458
98.037506 -4.1462107 -3.3312981
75.704933 -3.7516539 -3.2190592
98.041611 -3.7019601 -3.3344889
75.672363 -3.2484715 -3.2078607
98.195663 -3.2737923 -3.3483856
75.641418 -2.7569754 -3.1988742
98.828293 -2.9525213 -3.3949409
100.19625 -2.8951726 -3.4904721
75.590523 -2.2623503 -3.1889462
75.548576 -1.7754265 -3.1821439
75.490639 -1.15492 -3.1755154
75.52034 -1.3199918 -3.1790135
75.455498 -0.74572009 -3.1732838
75.383766 -0.23432751 -3.1684775
75.245102 0.27300352 -3.1562798
75.134766 0.73895705 -3.1493497
74.954834 1.3125982 -3.1371188
75.031273 1.0869735 -3.1423562
74.829712 1.7464826 -3.1313307
74.666946 2.2588515 -3.1244686
74.597771 2.7783453 -3.1331885
74.396828 3.3073528 -3.126405
74.50779 3.0628774 -3.1316397
79.993439 3.4282172 -3.0436859
80.182022 3.2801266 -3.0586331
80.578674 3.1589682 -3.0961363
81.22905 3.149641 -3.163471
82.037689 3.1541939 -3.2477119
83.709793 3.2014251 -3.4231014
84.062057 3.0916576 -3.4566839
73.977829 3.9162674 -3.096076
74.12336 3.6855638 -3.1053135
79.941093 3.7159367 -3.0476534
73.839165 4.247684 -3.0935626
79.954674 4.2318425 -3.0668333
73.59845 4.6815562 -3.0836902
79.990334 4.5818405 -3.0832477
80.045738 4.7686205 -3.0960028
98.387756 4.7731833 -3.4919999
98.534836 4.6389647 -3.4989152
82.881805 5.4639511 -3.4137218
98.262749 5.0585542 -3.4904175
72.463928 5.9600773 -3.0105958
72.610687 5.7836003 -3.018121
82.419388 5.9412284 -3.3855803
82.656082 5.7032776 -3.4001007
72.324516 6.1677136 -3.0066984
80.170181 6.4757853 -3.1807518
81.812393 6.3778191 -3.3424773
82.275818 6.1073513 -3.3779047
79.898163 6.5389743 -3.1562736
80.809967 6.5047884 -3.2466471
81.323784 6.542264 -3.3002708
88.895493 10.386448 -3.0286183
88.565201 10.728766 -3.0211411
67.007591 -67.253853 -2.8227072
71.289139 -62.780937 -2.6281831
71.624634 -62.749493 -2.6253233
84.267021 -62.220688 -2.6019757
84.317413 -61.758137 -2.5869904
84.333618 -61.200352 -2.5687852
84.335495 -60.648258 -2.5507495
84.367752 -60.195843 -2.536145
85.084473 -60.074806 -2.5357118
67.097832 -59.941486 -2.5528533
84.498871 -59.930222 -2.5281217
84.758339 -59.934708 -2.5295324
67.373566 -35.681103 -2.9916046
66.896004 -35.05344 -2.9444935
67.175217 -35.48867 -2.9766948
66.655602 -34.710117 -2.9189625
65.882668 -33.64045 -2.8395133
65.399567 -33.067993 -2.7967396
65.608543 -33.356758 -2.8180559
64.862778 -32.699677 -2.7681103
65.166779 -32.905605 -2.7840872
64.225327 -32.103485 -2.7236269
64.603775 -32.397533 -2.745786
63.395084 -31.616659 -2.6868677
63.730785 -31.791208 -2.700016
63.111298 -31.369011 -2.6688833
62.124386 -30.746515 -2.6243241
83.742241 -27.548412 -2.9660823
83.718475 -27.237411 -2.9505329
83.758957 -26.818382 -2.9330034
83.780525 -26.479301 -2.9184616
85.96331 -24.724588 -2.9465737
85.987762 -24.481188 -2.9378872
86.337212 -23.137871 -2.9027624
86.164543 -20.760489 -2.8067577
70.840286 -20.318325 -2.9739993
70.885323 -19.792091 -2.9324744
89.62114 -19.607052 -2.9634669
62.807213 -19.290823 -2.5547042
63.047569 -19.222839 -2.5535991
70.912613 -19.267639 -2.8906889
70.967567 -18.791935 -2.8550673
70.977249 -18.465967 -2.8293064
71.027672 -18.211823 -2.8120005
86.420135 -18.158289 -2.7364843
71.079109 -17.764105 -2.7796838
71.176537 -17.257103 -2.7462718
91.173775 -16.446604 -2.974381
71.469131 -15.78196 -2.6547174
71.554909 -15.648191 -2.650871
71.491501 -15.47539 -2.6340725
71.566025 -15.226657 -2.6215141
71.712082 -14.742515 -2.5979655
71.915848 -14.365981 -2.5869651
72.205849 -14.227779 -2.599112
71.798538 -13.626981 -2.5292184
62.977684 -13.441551 -2.529177
63.239616 -13.363231 -2.5342855
63.601707 -13.305013 -2.5484672
64.379913 -13.230461 -2.5891449
64.728844 -13.109177 -2.5988081
71.819046 -13.357103 -2.5132973
64.917099 -12.755481 -2.5712483
65.234779 -12.680728 -2.5862985
65.739128 -12.706869 -2.6279449
66.281357 -12.759806 -2.6770184
66.784653 -12.736128 -2.7161572
67.176819 -12.694502 -2.7452464
68.322845 -12.514329 -2.8300281
73.76696 -12.688629 -2.6266708
68.753662 -12.46187 -2.8655121
69.262993 -12.385834 -2.9073899
69.752342 -12.315471 -2.9492109
70.151802 -12.280879 -2.9862518
72.673149 -12.377712 -2.5199485
73.978027 -9.9552898 -2.5057137
74.240921 -9.7718801 -2.5212913
74.635773 -9.5721903 -2.5485761
63.745255 -9.1690083 -2.5171397
64.051163 -9.0720425 -2.5375233
74.890434 -9.4524584 -2.566968
75.26384 -9.3048382 -2.5955501
75.743408 -9.1570091 -2.6344941
76.078156 -9.0583496 -2.6622074
64.810699 -8.7175808 -2.5806062
65.085617 -8.5310059 -2.5915294
76.276421 -8.98629 -2.6782913
76.721725 -8.8779926 -2.7166717
77.321297 -8.7423658 -2.7692664
77.783302 -8.6240215 -2.8098278
78.104286 -8.5312958 -2.8379414
93.190292 -8.6462965 -2.996593
65.330902 -8.3699675 -2.6034586
65.694725 -8.1321497 -2.6234424
78.346794 -8.4440117 -2.8588309
78.768341 -8.3306818 -2.8965607
79.264206 -8.1494789 -2.9400742
79.703766 -8.0334988 -2.980206
65.944572 -7.9653506 -2.6381927
66.24749 -7.7754436 -2.6593051
66.598358 -7.5552988 -2.685487
92.225174 -7.7543187 -2.9275076
93.199455 -7.8362322 -2.9937761
66.850632 -7.2864499 -2.6954782
67.034332 -7.0505495 -2.7001238
67.305023 -6.812418 -2.7190855
67.540009 -6.5517101 -2.7321427
63.745045 -6.0594497 -2.5032108
67.786201 -6.2604365 -2.7467351
63.899685 -5.9390521 -2.5134895
64.147537 -5.6890769 -2.5251324
67.998611 -5.9765639 -2.7581089
68.167671 -5.744235 -2.7683394
90.143982 -5.6389751 -2.78227
64.415001 -5.3629637 -2.5342808
64.578049 -5.1141462 -2.5366254
68.350677 -5.234992 -2.7643135
89.889526 -5.3528223 -2.7650337
90.379982 -5.0132809 -2.7992084
90.572159 -5.2242279 -2.8120356
64.800667 -4.7574487 -2.5418162
68.601395 -4.7512517 -2.7768481
90.489777 -4.7834549 -2.8072915
90.679848 -4.7280025 -2.820554
64.977654 -4.4928026 -2.5499315
65.19352 -4.2442722 -2.5697205
68.844078 -4.2628446 -2.792073
77.926964 -4.1057801 -2.7354429
90.749222 -4.2638903 -2.8269074
65.453598 -3.9301796 -2.5947421
65.574539 -3.6691415 -2.5997858
68.970703 -3.8575268 -2.795162
69.023132 -3.6007817 -2.7938347
77.969582 -3.9149888 -2.7383654
91.073929 -3.9938045 -2.8504796
