# .PCD v0.7 - Point Cloud Data file format
VERSION 0.7
FIELDS x y z
SIZE 4 4 4
TYPE F F F
COUNT 1 1 1
WIDTH 1507
HEIGHT 1
VIEWPOINT 0 0 0 1 0 0 0
POINTS 1507
DATA ascii
47.799831 13.097025 -0.92054892
48.181263 13.034089 -0.91769719
59.730755 13.254303 -0.80347204
60.067471 13.124898 -0.79766929
64.771484 13.309435 -0.70794249
44.922951 13.982341 -0.94498646
45.263592 13.764653 -0.94103205
59.448967 13.6279 -0.80922365
59.736126 13.664724 -0.80485958
64.802498 13.841334 -0.70918643
60.00359 14.100975 -0.8021459
60.788197 14.356756 -0.78991735
64.82756 14.223384 -0.71001428
60.954586 14.501319 -0.78753448
64.857773 14.661283 -0.71092701
64.880684 15.07594 -0.71191418
57.220993 17.877214 -0.85829592
69.879456 19.386938 -0.61004204
70.010086 19.334057 -0.60647535
61.258667 19.772425 -0.79977244
61.533787 19.74868 -0.7946946
68.967995 19.846172 -0.6348474
59.683105 21.631704 -0.83355761
59.973671 22.356142 -0.83108926
58.96479 22.877243 -0.84983701
59.086212 22.845604 -0.8477236
60.285217 24.365393 -0.83247387
60.531311 24.493622 -0.82856703
62.939552 24.372135 -0.78342128
63.192047 24.435783 -0.77869797
60.320103 24.662703 -0.83285731
60.642735 24.726307 -0.82736659
57.618851 34.986004 -0.91413468
57.735909 35.085804 -0.91252929
53.638607 36.735382 -0.98314691
55.929504 36.879253 -0.94829696
56.580158 36.923382 -0.93796712
61.237003 36.672874 -0.856332
63.173187 51.4874 -0.86886549
64.963074 51.417435 -0.83366269
61.741848 52.363216 -0.89894789
62.821724 52.037052 -0.87742567
63.007523 52.33445 -0.8748548
61.921349 52.916412 -0.89740944
62.197495 52.638954 -0.8912822
61.36496 53.182793 -0.90870667
61.55024 53.161312 -0.90517879
61.168514 53.787518 -0.91436452
62.488377 55.516155 -0.89530283
63.642601 56.057846 -0.87496889
69.34272 61.248241 -0.77748311
69.797508 61.426964 -0.76855171
70.213966 61.289001 -0.75928378
70.037666 61.606316 -0.76410794
63.63924 64.484406 -0.90298975
65.484787 65.417274 -0.87003696
66.23597 66.304634 -0.85807335
80.758652 -65.682343 -0.19358885
79.948975 -64.537697 -0.20961738
65.664032 -64.265594 -0.4402042
71.909569 -61.350033 -0.34357941
66.187302 -58.629223 -0.44972718
66.482681 -58.437923 -0.44515169
67.076172 -55.81385 -0.44360936
68.696281 -54.580807 -0.42010331
68.151161 -54.025284 -0.43122235
69.246597 -54.411552 -0.41147488
71.392731 -54.495789 -0.3761583
68.407387 -53.756893 -0.42780083
70.187531 -53.624104 -0.39870453
67.698425 -53.345551 -0.44125545
70.450989 -53.404148 -0.39518774
70.407722 -50.709858 -0.40538907
74.328003 -49.460781 -0.34951013
74.693047 -48.730164 -0.34696406
74.301353 -48.253716 -0.3545194
74.805405 -48.116348 -0.34770921
75.046204 -48.005146 -0.34466618
70.380234 -46.503857 -0.42078352
70.834877 -45.79277 -0.41617385
71.215858 -45.615215 -0.41088256
71.745934 -45.805573 -0.40201119
72.11937 -45.593292 -0.39709499
73.120575 -45.565609 -0.38217446
72.337288 -45.445038 -0.39434588
72.651245 -45.355927 -0.38996208
85.302971 -44.631676 -0.23064774
85.320587 -44.284603 -0.23228651
85.352814 -43.96983 -0.23360682
85.403397 -42.605057 -0.24039787
85.430138 -41.77813 -0.24463838
85.467949 -41.163536 -0.24764615
85.477043 -40.677921 -0.25026339
85.505753 -40.398716 -0.25153989
88.951599 -37.815063 -0.23444197
85.63768 -37.244656 -0.26853991
88.985596 -37.305183 -0.23747674
88.986946 -36.895287 -0.24016911
89.028938 -36.681881 -0.24122447
85.684219 -36.321518 -0.27367157
85.721848 -35.688683 -0.27720129
85.750763 -35.326744 -0.27917972
85.804466 -34.752014 -0.28229332
85.989319 -34.492188 -0.28226519
86.244598 -34.473694 -0.28009585
89.143402 -34.014977 -0.25856191
89.144676 -33.651363 -0.26113206
89.187614 -33.224373 -0.26384774
89.199203 -32.766022 -0.26707357
85.897614 -32.148468 -0.29839122
89.214294 -32.434727 -0.26937497
85.917267 -31.823139 -0.30041274
85.937843 -31.282019 -0.30391932
85.989578 -30.889257 -0.30618834
86.238075 -30.77459 -0.30494568
72.27475 -30.288239 -0.45468742
73.694046 -30.259502 -0.43628883
72.751472 -29.788391 -0.4505105
73.174515 -29.831907 -0.44482595
86.082764 -28.254404 -0.32430962
71.033485 -27.512407 -0.48300266
71.930191 -27.63335 -0.47053123
72.007065 -27.542583 -0.46991664
86.102516 -27.783943 -0.32766756
71.186539 -27.328259 -0.48170114
71.577156 -27.222446 -0.47693753
72.167084 -27.085102 -0.46983093
72.697372 -27.094873 -0.46303052
86.121101 -27.328232 -0.33097419
34.906578 -26.580439 -0.010761976
36.600967 -26.544949 -0.00071454048
72.315796 -26.919065 -0.46865439
72.845451 -26.88678 -0.46211076
90.397972 -26.672289 -0.30720454
34.844902 -26.454487 -0.015311718
71.088028 -26.400089 -0.48691934
72.302719 -25.789248 -0.47386295
73.244171 -25.741381 -0.46251604
74.708908 -25.653267 -0.44588906
90.050598 -25.974016 -0.31549227
72.436386 -25.314541 -0.4743537
73.855301 -25.211956 -0.45784566
74.390915 -25.189491 -0.4518235
89.538902 -25.226566 -0.3252525
74.181702 -24.97933 -0.45525333
89.556274 -24.807753 -0.3288981
89.582062 -24.31349 -0.33323029
1.6867523 -23.67894 -0.230452
41.124943 -23.909391 -0.057277083
74.107254 -23.745474 -0.46236262
86.286102 -23.665066 -0.35926318
89.589401 -23.97788 -0.33626831
1.7679806 -23.282547 -0.2409921
86.399017 -23.358175 -0.36116466
86.689789 -23.310343 -0.3597371
1.6045151 -22.740107 -0.25606969
44.505333 -22.798958 -0.068919063
73.774338 -22.591164 -0.47201633
1.4783516 -22.304876 -0.26809943
74.013794 -22.003736 -0.47253546
73.769745 -21.730349 -0.47661003
74.113281 -21.820488 -0.47247186
86.424393 -21.041422 -0.38171148
74.206085 -20.587486 -0.47834682
86.429176 -20.74897 -0.38441357
74.137276 -20.148851 -0.48154154
86.435432 -20.254154 -0.38905635
89.774857 -20.094929 -0.37340349
57.482349 -19.745607 -0.035828829
74.215332 -19.64399 -0.48369795
86.472321 -19.705391 -0.39413637
89.796425 -19.754654 -0.3768748
74.629517 -19.292189 -0.4817946
86.497093 -19.233465 -0.39862892
89.820892 -19.266018 -0.38196468
57.802223 -18.683104 -0.071199894
58.083611 -18.658939 -0.067869067
58.955318 -18.726599 -0.051721513
86.497261 -18.961754 -0.40132481
86.524559 -18.709917 -0.40371239
89.844879 -18.711426 -0.38786334
86.717209 -18.315863 -0.40675825
89.873199 -18.308552 -0.39216977
57.566723 -17.70385 -0.1116339
58.250275 -17.886906 -0.094545841
58.779919 -17.679691 -0.094232477
59.257389 -17.703739 -0.085744105
89.891968 -17.63714 -0.39961606
104.7928 -17.777567 -0.34736079
41.082623 -17.452269 -0.27076942
42.309029 -17.324661 -0.26795113
43.388924 -17.116737 -0.26830369
43.582932 -17.287617 -0.26153955
57.844482 -17.383533 -0.11964595
59.306229 -17.030342 -0.11056489
89.913628 -17.238766 -0.40407711
42.350006 -16.869217 -0.28239891
42.958015 -16.932507 -0.27685913
43.110199 -16.976549 -0.27453539
59.370365 -16.996321 -0.11082804
89.934494 -16.719831 -0.4100101
92.27478 -16.734383 -0.40089613
92.72831 -16.77949 -0.39868784
93.24263 -16.782207 -0.39680493
93.760895 -16.638187 -0.39677835
94.292717 -16.641617 -0.39489919
52.80582 -16.196817 -0.22594476
90.256783 -16.445749 -0.41197634
90.906242 -16.431078 -0.40967068
91.095581 -16.272509 -0.41087681
92.355804 -16.298492 -0.40597504
92.885292 -16.035295 -0.40740871
15.124773 -15.885778 -0.40565422
43.288544 -15.954582 -0.30650076
52.636581 -15.927566 -0.23730762
53.272896 -15.565398 -0.24385342
92.274467 -15.98271 -0.41019529
93.28315 -15.982368 -0.4067173
40.716282 -15.352956 -0.33876869
42.450298 -15.396904 -0.32879016
42.866898 -15.172433 -0.33371735
53.164379 -15.239232 -0.25667134
53.615093 -15.273495 -0.25081888
76.709038 -14.755841 -0.49706307
77.072906 -14.718875 -0.49495989
91.040787 -14.627527 -0.43158999
91.553162 -14.567845 -0.43065619
93.04982 -14.5108 -0.42660832
60.969742 -14.243629 -0.18895972
61.065083 -14.304337 -0.1849719
76.690636 -14.433566 -0.49986824
91.154762 -14.178894 -0.43700957
91.908058 -14.089324 -0.43577558
57.409061 -13.965024 -0.25415072
57.76749 -13.613833 -0.26245126
91.146942 -13.772655 -0.44237137
91.568733 -13.562645 -0.44383883
93.495239 -13.801666 -0.43480766
94.643402 -13.639483 -0.43373221
102.22531 -13.510783 -0.41606098
43.948708 -13.313877 -0.38662636
44.045269 -13.144921 -0.39141908
57.746433 -13.19248 -0.27848905
91.299095 -13.245493 -0.44892186
91.900009 -13.277483 -0.44668052
92.830276 -13.377213 -0.44257039
94.236595 -13.07857 -0.442734
102.16666 -13.335123 -0.41886228
51.240925 -12.700697 -0.36256334
52.995014 -12.761095 -0.34614891
53.420616 -12.868942 -0.33853832
55.967056 -12.554479 -0.32396558
56.036766 -12.638014 -0.32012749
57.707458 -12.717117 -0.29674679
57.417885 -12.147145 -0.32166985
57.660915 -12.217859 -0.3159382
71.45842 -12.300531 -0.012092769
71.582779 -12.337205 -0.0071653724
90.418381 -12.194571 -0.46584725
91.27784 -12.389406 -0.46068081
91.823761 -12.203621 -0.46173245
93.981125 -12.200104 -0.45596129
94.056931 -12.357803 -0.45348811
97.259689 -12.227501 -0.44728911
56.754772 -11.591214 -0.35018143
57.295681 -11.776153 -0.33691779
58.055412 -11.91719 -0.32197785
71.327003 -11.772458 -0.034291893
71.692429 -11.772368 -0.023434579
91.382866 -11.662663 -0.47059143
93.773331 -11.800226 -0.4623099
94.208557 -11.592274 -0.46425471
94.899498 -11.522819 -0.46357185
96.641861 -11.874257 -0.45407885
102.72029 -11.51022 -0.44602895
103.37734 -11.929298 -0.43796852
55.218758 -11.018705 -0.3871851
56.15202 -11.066325 -0.3759999
56.912861 -11.285667 -0.35954714
57.159229 -11.417292 -0.35180885
71.668289 -11.444441 -0.035442561
72.716721 -11.058701 -0.016626626
91.30999 -11.396841 -0.47457993
98.351143 -11.071125 -0.46241909
115.15312 -11.166918 -0.42747736
45.900887 -10.724493 -0.45744085
46.035892 -10.512313 -0.46331292
54.871315 -10.836008 -0.39695132
55.30373 -10.839066 -0.3927401
72.84108 -10.938013 -0.016818732
95.908783 -10.831489 -0.47164217
96.007706 -10.603096 -0.47493613
100.57913 -10.748981 -0.46270019
103.19315 -10.645008 -0.45901221
115.2033 -10.791097 -0.43384695
46.816666 -10.389607 -0.46361011
48.110069 -10.467195 -0.45508909
54.113899 -10.43261 -0.41772121
54.631416 -10.188796 -0.4218024
55.139721 -10.234869 -0.4156889
56.74205 -10.294203 -0.39760497
57.29438 -10.02846 -0.0058505833
96.150681 -10.387636 -0.47796723
96.722229 -10.235716 -0.47908828
98.521751 -10.027659 -0.47856539
99.162369 -10.068126 -0.47658497
100.99998 -10.430538 -0.46695
101.10624 -10.31369 -0.46862638
103.98566 -10.464719 -0.46038842
104.03799 -10.172853 -0.46511301
42.747105 -9.7382383 -0.49866998
44.332008 -9.5230169 -0.49943554
45.592598 -9.7193336 -0.48897234
46.323814 -9.893918 -0.48080933
47.804703 -9.5988674 -0.48340011
48.303028 -9.6142883 -0.4806653
48.592342 -9.515851 -0.48235911
49.087601 -9.7969599 -0.47121271
49.972435 -9.6348 -0.4717775
50.009125 -9.7105045 -0.46917999
55.019367 -9.6954737 -0.43568817
56.841099 -9.588418 -0.033270266
57.137466 -9.8595648 -0.016646015
100.9504 -9.8376436 -0.47671032
103.69025 -9.7061138 -0.47355694
47.613167 -9.2886963 -0.49367148
49.782246 -9.2836981 -0.48381981
54.442055 -9.2387447 -0.030545592
54.500214 -9.2347002 -0.031624913
56.297302 -9.1859159 -0.05573057
56.64854 -9.3825788 -0.045693118
103.41414 -9.4125738 -0.4790048
104.78606 -9.1840086 -0.48031825
51.379543 -8.7065992 -0.37208936
51.856186 -8.7041311 -0.01553499
52.013428 -8.7306442 -0.017353654
56.211578 -8.5629883 -0.095206082
61.329727 -8.5250053 -0.19729573
49.69297 -8.0082102 -0.0021719933
51.817795 -8.1501913 -0.04482194
53.904213 -8.1010809 -0.089658894
54.281208 -8.2580347 -0.087087072
54.626049 -8.2431498 -0.093666218
55.211803 -8.0373173 -0.11519885
55.850548 -8.3451452 -0.10486148
56.083839 -8.3816433 -0.10532907
61.320396 -8.4818897 -0.28104097
49.428627 -7.7464724 -0.008310169
49.667252 -7.8618169 -0.0087355375
50.899715 -7.6888533 -0.04774351
51.241699 -7.7151327 -0.05452517
51.619621 -7.8096023 -0.058436479
55.228848 -7.9309149 -0.12190381
55.853729 -7.8006697 -0.13890582
48.915184 -6.7912483 -0.03938216
48.057564 -6.314373 -0.036214352
48.976521 -6.058197 -0.07349205
49.148094 -6.2854667 -0.068409063
49.038776 -5.9227591 -0.081097722
60.766972 -4.8196855 -0.19746588
44.886162 -4.1106997 -0.022747755
49.641369 -4.3654823 -0.16241601
58.963474 3.2832897 -0.34810853
59.200092 3.2940986 -0.36082178
58.903526 3.7038066 -0.43201151
59.290703 3.7549565 -0.3899537
59.764599 3.8534365 -0.41296017
60.075951 3.8610198 -0.46269211
59.340107 4.159606 -0.35210037
59.778503 4.2074575 -0.33969378
60.125576 4.2429895 -0.38501522
64.182518 4.2779183 -0.12197607
66.848351 4.1514454 -0.26532558
60.044369 4.568553 -0.42196593
60.981796 4.9625177 -0.23237529
61.022301 4.8888235 -0.20685081
64.361664 4.9717345 -0.22082004
65.563202 4.8006983 -0.24752781
66.773384 4.8664732 -0.2758027
59.394081 5.331459 -0.36491513
61.01371 5.0103931 -0.2295329
64.337486 5.0307112 -0.21779734
66.735092 5.2498813 -0.13937619
84.443497 5.418087 -0.0066745281
42.161667 5.9760375 -0.12520987
54.836296 5.8626394 -0.16317901
55.177177 5.7358694 -0.18435985
59.846779 5.7547579 -0.34867525
62.805134 5.9480839 -0.13260089
63.057602 5.9247303 -0.10595164
64.448532 5.8503971 -0.34276378
64.793777 5.80477 -0.41264945
65.150963 5.7922697 -0.40376654
66.191597 5.936779 -0.39316478
66.730469 5.6937394 -0.23538832
84.681511 5.6009297 -0.0011913776
40.106133 6.4081154 -0.063284241
42.363392 6.1790009 -0.13269992
43.154991 6.4142299 -0.15847582
54.497318 6.3655906 -0.12954807
54.742008 6.2974796 -0.35790488
55.212421 6.3677559 -0.32712069
62.576004 6.0054708 -0.1135179
65.923828 6.1015706 -0.40224934
66.071793 6.0160599 -0.39720634
66.653572 6.0524206 -0.3677018
77.814697 6.2145309 -0.25522497
81.147804 6.4604144 -0.14108896
82.288162 6.4531813 -0.10046601
84.773048 6.2506557 -0.0085989432
41.73278 6.6418529 -0.11552042
43.066872 6.5171294 -0.15620494
47.175018 6.7952218 -0.28000987
55.128105 6.5767903 -0.15183556
64.414818 6.8490152 -0.4448739
64.749191 6.7656069 -0.1863651
65.258644 6.7297254 -0.16134575
65.938942 6.9545693 -0.27125707
66.232704 6.9630847 -0.23323067
66.63488 6.9559436 -0.14485025
80.928299 6.7524929 -0.15327629
81.042984 6.6478019 -0.14764273
84.393394 6.7752414 -0.030562282
84.731972 6.6183414 -0.015993953
41.77927 7.2761002 -0.11960691
45.389038 7.1703477 -0.22788736
47.429665 7.153502 -0.28699186
47.624146 7.3114853 -0.29218349
54.755272 7.132184 -0.1135686
64.439606 7.2504978 -0.43235219
65.931641 7.0134625 -0.10569704
66.151047 7.0151315 -0.09199512
80.800224 7.001667 -0.16151798
84.341866 7.2255354 -0.039434344
47.326183 7.7458396 -0.28268197
47.538212 7.9299512 -0.28791019
59.183174 7.9488921 -0.20729893
64.466553 7.7424669 -0.41703027
64.544037 7.8638229 -0.12847894
65.97319 7.7330151 -0.062487304
66.122063 7.7163 -0.054643776
85.569321 7.8428426 -0.0053547621
47.521683 8.0701284 -0.28691083
64.493973 8.1830196 -0.40312892
64.504051 8.3839111 -0.39684951
83.916687 8.4059629 -0.072231889
59.172981 8.7252998 -0.32077932
64.527679 8.7518063 -0.38514426
80.094635 8.9500456 -0.21329594
80.842583 8.8447876 -0.18597788
83.543541 8.7306061 -0.090041459
84.508682 8.5414505 -0.053350329
45.272572 9.4333105 -0.22012967
59.240486 9.4261227 -0.28701958
60.145653 9.3512049 -0.45410886
60.78418 9.4300165 -0.11760964
64.561821 9.3072386 -0.36746728
79.869919 9.148243 -0.22362585
80.326202 9.0633383 -0.20676935
82.302513 9.2653217 -0.14088099
82.555656 9.2970982 -0.13249804
44.980438 9.5157394 -0.21186423
45.259506 9.5173578 -0.21939987
47.845463 9.8745861 -0.28371954
59.75827 9.6455984 -0.27681535
60.015202 9.6145983 -0.10777366
60.948578 9.5037041 -0.11172438
64.592201 9.7672024 -0.35271245
82.57576 9.8249655 -0.13891596
84.873009 9.7246981 -0.057496071
85.063553 9.9464245 -0.053927183
86.315659 9.9871693 -0.010653019
47.786724 10.249112 -0.27892649
59.159294 10.071817 -0.25583044
60.552784 10.097928 -0.075162828
64.626404 10.278966 -0.33623895
79.989143 10.328607 -0.23428679
80.243591 10.224278 -0.22433217
80.847054 10.270237 -0.20425871
86.222107 10.047054 -0.014781952
59.28997 10.783001 -0.031353012
64.649887 10.767216 -0.32077089
79.211235 10.933077 -0.26775658
80.132088 10.660975 -0.23342654
83.845901 10.607935 -0.1052711
85.991814 10.540586 -0.029733956
78.414703 11.324414 -0.29879221
79.143547 11.269511 -0.27383277
79.729691 11.390721 -0.25552431
80.296013 11.271388 -0.23507507
80.663284 11.149882 -0.22121894
83.780785 11.325552 -0.11683327
45.268204 11.623978 -0.20561087
79.443314 11.510715 -0.26650086
60.316425 12.175878 -0.36569726
60.763058 12.409785 -0.35306799
61.050892 12.352114 -0.35101274
76.805893 12.245105 -0.36108324
77.968994 12.449111 -0.32526806
78.091492 12.238608 -0.31911647
78.881584 12.370514 -0.29448512
79.312759 12.252316 -0.2789681
83.177132 12.051517 -0.14656615
60.632256 12.523828 -0.35118049
75.865677 12.91972 -0.39744711
76.222084 12.809842 -0.3851274
76.662613 12.680431 -0.36983287
77.160156 12.506417 -0.35214704
77.930664 12.87128 -0.33071104
78.068985 12.754738 -0.32505691
78.990082 12.510386 -0.29237247
83.257324 12.592574 -0.15035337
83.854309 12.686004 -0.13118473
85.097855 12.719793 -0.089167476
44.30719 13.39547 -0.16583543
44.721344 13.367074 -0.17567547
45.105347 13.367784 -0.18438582
59.608788 13.059261 -0.34540972
60.802559 13.492927 -0.31866795
75.341248 13.086475 -0.41542923
75.894341 13.303994 -0.39991173
76.571724 13.437598 -0.37967432
83.082153 13.483439 -0.16665101
45.178699 13.5979 -0.18338186
45.620811 13.96178 -0.1885553
46.292278 13.923347 -0.20316792
59.389362 13.551199 -0.33223462
59.81398 13.628307 -0.32602262
82.372421 13.735989 -0.19326854
85.09005 13.884456 -0.10352039
38.197937 14.316625 -0.0066467323
38.700508 14.289194 -0.019932032
39.199169 14.263951 -0.032987714
39.769318 14.229726 -0.047821838
40.310654 14.165147 -0.062011302
40.713383 14.171738 -0.072060943
41.115334 14.176241 -0.082011849
42.879692 14.0933 -0.12538224
43.115944 14.075068 -0.13111567
46.670746 14.272589 -0.20593786
58.80228 14.483911 -0.30835527
59.01342 14.019757 -0.32090276
82.780243 14.114773 -0.18382823
46.670647 14.570567 -0.20157409
64.941605 15.150652 -0.17835021
46.756035 15.797709 -0.18387955
57.214684 17.428379 -0.22925067
57.122261 17.984123 -0.21322113
56.775757 18.139221 -0.21011016
57.140564 18.279903 -0.20435932
58.360233 19.873489 -0.1477133
59.370159 19.963091 -0.13457607
60.36742 19.74596 -0.12855287
60.556442 19.938192 -0.11981207
58.916931 20.157223 -0.13355935
59.127037 20.161917 -0.13115305
60.817493 20.161022 -0.10886923
61.229374 20.292253 -0.098161303
61.858456 20.48481 -0.081224523
62.00037 20.466536 -0.079210579
56.602982 20.771404 -0.13296965
57.413147 20.704494 -0.12998939
57.704517 20.749149 -0.12645882
61.606453 20.639378 -0.080819517
62.282585 20.699659 -0.066499159
62.640366 20.896044 -0.053282041
60.46244 22.024357 -0.055600882
63.126198 22.173191 -0.0029164553
57.897835 23.356541 -0.045027852
57.436386 23.552664 -0.043160677
57.678032 24.560293 -0.010100424
29.048389 -42.572746 0.48806119
27.931778 -42.456326 0.47502053
28.158054 -42.493874 0.47812045
28.727676 -42.369724 0.47843623
24.354916 -32.544388 0.11990851
60.232849 -32.548489 0.4972828
24.8041 -32.384541 0.11732376
60.093597 -32.085468 0.47710752
59.988888 -31.962435 0.47054815
17.708878 -30.720226 0.028654188
34.967674 -29.056032 0.072054386
36.372917 -29.146265 0.085186064
43.643799 -29.1605 0.14677536
34.895935 -28.928883 0.06728965
36.189335 -28.738562 0.070059359
36.589134 -28.697023 0.071559429
34.932968 -27.696978 0.026407778
69.317734 -27.567856 0.49337554
34.979004 -27.073681 0.0060200095
35.029186 -27.213799 0.010996103
36.94273 -27.314257 0.02744945
69.870728 -27.317486 0.4969126
36.278431 -26.756006 0.0041398606
36.565643 -26.958193 0.012858629
64.514297 -26.153952 0.3344872
69.356567 -26.188705 0.44234592
64.703201 -25.778742 0.32404724
69.276642 -25.895859 0.42944515
69.700706 -25.688095 0.43166387
70.322357 -25.629311 0.44436532
70.257423 -25.415836 0.43481076
64.86364 -24.726662 0.28722447
65.103699 -24.879419 0.29805872
69.734375 -24.663319 0.39401996
71.716156 -24.753073 0.44609788
70.964172 -23.703505 0.3882755
73.631783 -23.727215 0.45774841
70.455887 -23.33041 0.36177325
70.701538 -23.229471 0.36410844
73.389626 -23.014372 0.42530656
69.862244 -22.726547 0.32466272
70.094818 -22.798147 0.33303523
71.058464 -22.946253 0.36252534
69.66008 -22.420979 0.3083092
73.668404 -22.389257 0.40997672
69.945923 -21.628618 0.28578067
70.037987 -21.633764 0.28825545
73.073685 -21.681246 0.36830223
70.398674 -21.041971 0.27530545
73.275604 -21.068501 0.3514632
73.439613 -20.932159 0.3509618
73.621895 -20.830236 0.35223648
74.223091 -20.592157 0.36018717
72.246231 -20.304132 0.29607546
73.748291 -20.374069 0.33924818
74.150742 -20.336443 0.34900397
70.057693 -19.943878 0.22601002
74.699684 -19.576794 0.33725324
76.047173 -19.584812 0.37608528
70.182175 -19.45059 0.21092248
74.287506 -19.300697 0.31580949
76.092056 -19.429585 0.3719455
74.487083 -18.655344 0.29854572
74.549438 -18.607197 0.29861891
69.292709 -17.267315 0.10757053
58.492474 -16.700445 0.46841609
58.748779 -16.782927 0.4764905
59.058247 -16.748306 0.47674966
69.407104 -16.939167 0.098385215
69.809319 -16.505323 0.092870235
69.663948 -16.182804 0.077243656
72.171883 -16.283619 0.14888026
69.228485 -15.817377 0.052478969
69.747002 -15.92167 0.069861889
74.128067 -15.597556 0.18093181
74.73143 -15.634781 0.20008904
58.310978 -15.186653 0.35835862
58.63026 -15.278819 0.36710173
73.326645 -15.222258 0.14438404
74.786102 -15.258645 0.18880451
58.426167 -14.952487 0.34226778
72.027931 -14.563916 0.083743751
75.337708 -14.841626 0.19122833
55.720299 -14.005956 0.27106118
61.081165 -14.229309 0.31779483
72.1334 -14.386061 0.080505773
74.224731 -14.157335 0.13423073
74.889946 -14.381621 0.16200393
75.011971 -14.41808 0.16695249
56.404549 -13.637601 0.24429619
73.953453 -13.592598 0.10678234
56.030449 -13.140392 0.21087873
53.518421 -12.835976 0.2074585
58.226734 -12.506042 0.16673875
73.873856 -12.848166 0.079118453
74.140312 -12.913102 0.089471072
51.19804 -12.362758 0.20802736
57.295727 -12.22158 0.14533319
58.109138 -12.41894 0.16021532
50.715336 -11.692028 0.17617869
54.947815 -11.931437 0.13557196
55.039715 -11.92086 0.13415673
56.914043 -11.60284 0.10303488
57.124214 -11.79735 0.11605513
57.830704 -11.773024 0.11419956
58.064377 -11.910495 0.12420598
71.226677 -11.783666 0.48835945
84.289894 -11.735936 0.3859098
55.188931 -11.435963 0.10103965
56.748322 -11.374294 0.087861419
57.223621 -11.082376 0.37459496
70.701775 -11.005689 0.41306651
73.43602 -11.432811 0.018143892
79.354111 -11.07358 0.19876477
53.15638 -10.685169 0.076621503
54.750385 -10.902684 0.070367396
55.005142 -10.685987 0.053820908
56.560364 -10.598291 0.46251416
57.46529 -10.991896 0.059852242
70.812523 -10.664274 0.39753634
71.248177 -10.590023 0.41572505
79.419525 -10.987735 0.19835734
79.532387 -10.974903 0.20175958
55.46912 -10.061546 0.0088835359
55.782921 -10.216232 0.44424814
56.708157 -10.140887 0.41430315
71.069717 -10.492283 0.40034902
56.244198 -9.6306982 0.37598991
56.608292 -9.6586485 0.36949947
57.34787 -9.7989244 0.36733943
57.534508 -9.9023952 0.37421834
45.384365 -9.1279821 0.16348468
45.583652 -9.2738066 0.16490394
47.319183 -9.3077164 0.12143648
47.821869 -9.3999586 0.11344381
48.122547 -9.2472906 0.098396838
51.905293 -9.3101273 0.017195277
52.667229 -9.2483168 0.46868014
56.187756 -9.3976831 0.35526097
56.754604 -9.3496952 0.3360664
57.172348 -9.1116714 0.30299616
47.234596 -8.7506351 0.096695945
47.554012 -8.6988297 0.085895777
51.733486 -8.7511692 0.41718856
52.376507 -8.6036921 0.42953983
52.504799 -8.704092 0.43163717
55.887695 -8.6754532 0.29642922
56.320759 -8.6635036 0.28217998
56.5401 -8.5431643 0.26441872
61.38554 -8.5204859 0.21175338
61.50415 -8.5490599 0.21621561
35.40239 -8.4621019 0.42918444
40.217072 -8.1543407 0.27030554
46.807838 -8.0190468 0.074011922
47.455589 -8.0707865 0.058843732
47.695648 -8.2040205 0.058677513
51.662132 -8.3285503 0.44223255
53.541298 -8.2650213 0.34985423
54.705944 -8.1123905 0.28854436
55.337486 -8.042017 0.25818416
55.869656 -8.2394323 0.25715017
56.224915 -8.3784199 0.25845414
56.506977 -8.4552011 0.25708318
61.418274 -8.4969301 0.20955761
74.383781 -8.4143229 0.47446465
33.404007 -7.5833578 0.46050334
33.666931 -7.7262535 0.45713043
34.460545 -7.6108866 0.42805314
35.193005 -7.713964 0.40864095
35.7481 -7.950706 0.39975345
36.665684 -7.7011914 0.36213437
37.198074 -7.7926087 0.3488915
39.792759 -7.5731068 0.26072127
40.344086 -7.975842 0.25946885
44.333904 -7.8729081 0.13725252
47.384972 -7.9431114 0.054857403
48.766251 -7.9005942 0.016198039
49.099266 -7.9509187 0.010027587
50.235657 -7.6039796 0.46378207
50.774582 -7.5693855 0.43233958
51.487816 -7.8723822 0.41685581
51.705742 -7.8100233 0.40128106
53.788177 -7.7167802 0.2943044
54.324024 -7.8004518 0.27780133
54.585995 -7.8648076 0.27225909
55.153336 -7.8791242 0.25092876
55.778053 -7.9316339 0.23250441
33.685776 -7.3002248 0.44186568
36.892067 -7.0291295 0.33102059
37.666779 -7.2684689 0.31523705
39.244606 -7.3596482 0.26956055
39.692467 -7.3890128 0.25685233
44.978596 -7.3223338 0.09541402
45.202061 -7.271873 0.086790502
49.969723 -7.2542014 0.45481947
50.119457 -7.2682772 0.44750738
51.479111 -7.2732291 0.37404904
51.579792 -7.3928237 0.37729627
36.018597 -6.9776573 0.35679865
46.029659 -6.7091184 0.039219439
48.812992 -6.705914 0.4863278
49.86739 -6.9310179 0.43941849
36.270859 -6.3824077 0.32846749
46.199993 -6.2444468 0.015238856
46.5718 -6.3854942 0.0099655092
48.753662 -6.3462029 0.46823111
46.249557 -5.9657302 0.0025923252
60.8158 -4.802084 0.2523945
91.990753 -4.6342478 0.47271025
92.086349 -4.5425181 0.47400784
43.949387 -4.1738963 0.0093470812
49.702843 -4.3514824 0.29996699
92.103828 -4.2809172 0.46852005
92.739258 -4.3175516 0.49235654
35.448387 -3.7819085 0.27440763
38.659256 -3.8549931 0.17107756
91.474968 -3.7203281 0.43273711
91.72583 -3.7482386 0.44247395
91.891777 -3.3538892 0.43942583
92.212914 -3.1851511 0.44722638
91.73259 -2.8675017 0.42261356
92.666458 -2.6405506 0.45139766
92.275467 -2.3426752 0.43055952
92.731171 -2.3089979 0.44636202
58.955524 3.2448273 0.019998908
59.037411 3.203512 0.17817703
88.144958 3.9950385 0.15173042
64.185982 4.2962413 0.12698336
66.853325 4.2011123 0.046088282
86.52774 4.4103909 0.085798383
87.199249 4.1235318 0.11519978
88.226349 4.1000338 0.15276349
31.76334 4.942811 0.22072682
34.895191 4.5891709 0.12232459
35.3605 4.8535581 0.10389672
54.848621 4.7527695 0.41320547
55.754173 4.8383946 0.31755349
61.052044 4.8839302 0.33764455
64.249962 4.6432815 0.31175667
64.714958 4.9818168 0.48618573
65.446854 4.8710928 0.3602266
65.748001 4.8695164 0.40051761
66.230408 4.9188442 0.42341521
66.682281 4.8947043 0.1976078
85.176071 4.8778887 0.028863758
86.598877 4.9918346 0.078137755
87.619034 4.7819376 0.11860383
89.360954 4.7535071 0.18199778
94.689163 4.6719007 0.37616885
54.464733 5.2196765 0.27010942
54.634224 5.1952529 0.22393048
55.232479 5.1102462 0.092412122
64.448189 5.3023329 0.30934072
64.621689 5.0340161 0.44991675
65.245621 5.0912085 0.36601582
65.562813 5.132668 0.33984303
66.376518 5.0278168 0.27886069
66.68528 5.1991062 0.15696074
85.119766 5.1594257 0.022004232
86.623428 5.1743035 0.075858831
87.76458 5.1343451 0.11766541
88.186913 5.0752316 0.13392654
33.658409 5.6104059 0.15083295
35.331783 5.8309727 0.094203442
44.264042 5.8207808 0.46719584
45.800812 5.7464399 0.36818746
46.414196 5.8455501 0.32996321
46.82193 5.8489642 0.30424604
47.139938 5.9416695 0.28518009
62.834221 5.9456654 0.19206694
63.09137 5.8996201 0.19246259
66.701752 5.6802773 0.23933309
85.383774 5.5141101 0.025473952
86.883804 5.7694378 0.075051188
36.957733 6.3108253 0.037470102
44.248528 6.0019855 0.4692421
45.804214 6.0012422 0.36995912
46.971306 6.1253872 0.29770827
47.3535 6.1849895 0.27462837
47.820095 6.3464284 0.24791799
54.384407 6.3521814 0.22521707
54.750519 6.2667575 0.19237597
55.388508 6.2722225 0.27311665
62.466438 6.0233369 0.17739363
62.595612 6.0189881 0.2074064
64.47834 6.2264948 0.22592142
85.34436 6.0595837 0.014970154
98.404144 6.1582398 0.48354459
36.83252 6.7240834 0.038143247
37.123283 6.9784479 0.027044594
37.774254 6.8881502 0.0070836544
47.872971 6.7716947 0.25102103
54.31459 6.7937341 0.25544655
55.362595 6.6556106 0.39094946
55.764893 6.8998055 0.48892966
64.481567 6.5216613 0.023563087
64.677086 6.8221436 0.06393072
66.437805 6.8088961 0.47473088
66.728821 6.7116838 0.28115728
89.158783 6.8331747 0.13889039
33.556526 7.4052682 0.13717532
47.752941 7.2891273 0.26691362
55.263325 7.0567451 0.20402473
55.821442 7.0048909 0.49376225
64.55574 7.2256575 0.35936987
66.329018 7.0635748 0.49233073
66.802208 7.0825443 0.24778023
86.122421 7.4725847 0.02004981
33.147354 7.8977585 0.1464397
47.358196 7.870389 0.30107561
47.576584 7.5958118 0.28296113
54.898178 7.5486145 0.26115611
58.380329 7.8449183 0.40361291
58.771675 7.7089276 0.36823085
59.241318 7.9546165 0.35497451
64.595329 7.7869458 0.24550396
66.770668 7.6978316 0.29585016
80.331757 7.6372213 0.49992561
85.820251 7.7427883 0.0050963163
22.146252 8.3985672 0.49530125
47.411961 8.1056023 0.30265501
47.714363 8.3345833 0.29016355
48.064018 8.4670544 0.27328902
58.209049 8.3330355 0.15011628
58.814842 8.1456938 0.11411288
59.279255 8.1664658 0.10403882
66.304062 8.4995165 0.00073391199
78.961754 8.3721657 0.40893024
80.295403 8.2212477 0.49736941
47.872021 8.9860001 0.29663521
48.173248 8.7432261 0.27394676
60.205894 8.768734 0.46046686
61.072884 8.9781408 0.48157537
66.280258 8.524663 0.00080800056
79.845032 8.6932287 0.46800855
48.253765 9.1435642 0.2797657
48.529339 9.079277 0.26299936
58.512413 9.3121948 0.23026961
59.242962 9.3460245 0.21711753
60.791054 9.3189087 0.20064354
61.17926 9.0493612 0.49139139
78.90139 9.490139 0.4088608
79.295547 9.2490625 0.43346262
79.821198 9.2936125 0.46801934
80.152168 9.3053055 0.48973703
36.601074 9.9715776 0.029770136
37.24371 9.9750175 0.010532022
37.571972 9.9948807 0.00071942806
47.890144 9.822401 0.31792405
48.206341 9.8891678 0.30302477
54.646667 9.7263365 0.43200174
60.146133 9.5656729 0.22722244
78.755676 9.7157984 0.40061241
31.011967 10.227264 0.1994859
33.567833 10.005677 0.12169909
36.661514 10.050586 0.02780503
37.341331 10.235669 0.0072765052
47.770893 10.080923 0.33161891
48.31245 10.107503 0.30395287
54.497845 10.305395 0.48441935
54.513268 10.212115 0.47640741
55.409489 10.486136 0.45168364
55.743523 10.201814 0.41245189
56.466839 10.307535 0.38942003
56.587574 10.256233 0.38008758
58.842945 10.044076 0.29153681
59.169697 10.2185 0.30237794
59.976875 10.094157 0.28071111
64.678757 10.287605 0.03105846
78.825058 10.148616 0.40752795
36.79808 10.608267 0.022989929
47.955425 10.668005 0.33956426
59.2882 10.720251 0.34939912
59.853611 10.648927 0.33651397
60.036728 10.596083 0.33005828
79.800476 10.898911 0.47449267
88.063454 10.909963 0.037562788
31.041967 11.241135 0.19459528
57.08905 11.469632 0.46993876
57.515434 11.460072 0.45649254
79.056465 11.396555 0.43114483
79.866463 11.15008 0.48036519
31.102852 11.774666 0.19120772
46.65435 11.875134 0.4440586
57.082645 11.595411 0.48159134
57.539757 11.513047 0.46072841
78.176338 11.695585 0.37924579
78.743797 11.621841 0.41361141
79.942978 11.854969 0.49041569
77.133781 12.287475 0.32259223
77.525139 12.208596 0.34509847
78.253838 12.071656 0.38778505
79.141022 12.01452 0.44179118
58.746857 12.569551 0.084320664
59.670746 12.852699 0.10147595
61.305702 12.930449 0.11889517
75.111519 12.744302 0.21133244
76.206612 12.775647 0.27451453
78.191956 12.506757 0.38871264
91.013153 12.609694 0.11700249
59.237793 13.443491 0.13926673
60.492641 13.332837 0.13702554
75.816246 13.200503 0.25838348
76.159355 13.20994 0.27810869
79.202057 13.052614 0.45593679
89.897827 13.291391 0.068918496
59.352066 13.602752 0.14962673
59.853241 13.639093 0.15328449
60.558319 13.521921 0.15003312
76.253334 13.999477 0.29563129
88.183327 13.947797 0.0012393594
36.794281 14.374151 0.03087306
37.226879 14.355611 0.01922226
37.669373 14.339474 0.0073944926
47.835346 14.391651 0.48021975
48.144951 14.14925 0.45698452
76.278847 14.121652 0.29902053
77.703552 14.005631 0.37871683
89.934059 14.018151 0.060617924
29.375637 14.747234 0.23949862
89.967918 14.708082 0.05293259
65.015511 15.020714 0.34959722
90.005066 15.044497 0.049963713
48.868286 15.566694 0.48881465
57.145493 16.99844 0.37255859
56.45969 17.313915 0.39734006
56.524494 17.318512 0.39707375
57.312897 17.294395 0.39032507
58.286636 18.206455 0.4466266
56.699448 18.968742 0.4993279
90.98996 20.871382 0.016048551
63.130466 22.274916 0.00039157271
62.916183 22.689333 0.0089912815
67.405365 23.666676 0.15435049
63.453831 24.654881 0.082407027
63.664135 24.624115 0.086042322
57.896194 25.289124 0.014485061
58.00465 25.205978 0.013025701
67.650528 25.603909 0.22062889
51.73735 30.796659 0.14371824
51.232872 37.275784 0.33112526
18.206827 -53.230202 0.76818764
18.335583 -52.509113 0.74450314
29.993851 -50.190502 0.76353812
13.154722 -47.078568 0.52588367
56.086349 -39.747925 0.70127618
63.301418 -38.169048 0.76953912
63.563946 -38.104496 0.77218091
63.297115 -37.901505 0.75922132
85.156807 -29.061617 0.97305989
69.639221 -28.00005 0.51715708
72.944687 -28.462561 0.61457109
69.289711 -27.884451 0.50466013
70.237801 -27.533871 0.51375544
89.621902 -25.649271 0.99527574
89.626923 -25.298281 0.98395962
86.338394 -24.541422 0.85567999
89.649292 -24.797295 0.9683423
86.354836 -24.224054 0.84565049
89.676514 -24.300867 0.95309752
86.365578 -23.734406 0.82976961
89.691231 -23.968555 0.94281828
86.40284 -23.433184 0.82099271
86.639748 -23.335548 0.82523364
65.207886 -22.273928 0.99400818
65.779816 -21.812588 0.97575498
86.507095 -21.02659 0.74580669
65.268448 -20.779202 0.88686764
65.518227 -20.897474 0.90216982
86.499313 -20.730186 0.73601103
86.507912 -20.730612 0.73630452
86.529854 -20.248413 0.72154379
89.863548 -20.146879 0.82718652
66.25174 -19.709255 0.83689702
86.547401 -19.757172 0.70643061
89.884056 -19.730928 0.81495309
65.773758 -19.063955 0.77639842
86.57505 -19.287277 0.69241166
89.907051 -19.238272 0.80050451
65.615173 -18.578056 0.73665953
69.311699 -18.642286 0.86368543
69.563004 -18.619106 0.87158239
86.597633 -18.755003 0.67634344
89.933594 -18.755402 0.78655863
65.68634 -18.416574 0.72700584
69.57756 -18.263466 0.8474018
72.943001 -18.072622 0.97645164
73.082527 -18.017324 0.97919583
86.762161 -18.337933 0.66865021
89.954735 -18.348783 0.7748456
73.231804 -17.55649 0.95589924
89.980873 -17.540524 0.7512176
43.933212 -17.250507 0.62119335
44.177319 -17.320152 0.62058544
69.684891 -17.452663 0.79541498
70.015762 -17.136972 0.78694153
71.767761 -17.16518 0.86335397
72.883499 -17.406036 0.92985785
89.993576 -17.412354 0.74778259
90.002068 -17.140354 0.73989528
69.805496 -16.991091 0.76841998
71.964096 -16.548315 0.83121324
90.020744 -16.756567 0.72904038
91.312424 -16.515223 0.76572943
91.837158 -16.538082 0.78429002
92.247879 -16.56949 0.79923272
92.641121 -16.572624 0.81276888
93.735939 -16.53385 0.84916627
95.239716 -16.611345 0.90314341
95.544495 -16.619635 0.91389322
96.58358 -16.692701 0.95187473
97.310966 -16.897028 0.98285246
68.833702 -16.263306 0.67980915
69.19342 -16.175646 0.6878044
72.300179 -16.148775 0.82043362
90.215004 -16.471985 0.72714901
90.811417 -16.491856 0.74799114
93.879677 -16.475456 0.85241508
72.442245 -15.975576 0.81578535
74.331367 -15.643475 0.88730431
92.924484 -15.844374 0.80135465
93.972061 -15.690064 0.83302808
94.055954 -15.593079 0.8331573
57.35656 -15.327426 0.9342292
58.413914 -15.165871 0.91257524
69.262566 -15.212564 0.62441838
72.392555 -15.122304 0.75816917
72.610527 -15.041777 0.76354694
73.18013 -15.231923 0.80359983
92.307716 -15.323255 0.76511854
95.17659 -15.00773 0.85544157
58.577843 -14.722441 0.86530817
69.345474 -14.780595 0.59831339
69.593628 -14.800097 0.61003906
72.387207 -14.65853 0.72812033
72.858559 -14.893162 0.76619387
73.091209 -14.556742 0.75648093
75.463493 -14.730645 0.89078176
61.220509 -14.169304 0.82097846
69.642082 -14.446083 0.58814728
72.089966 -14.335459 0.69296587
72.82959 -14.469196 0.73788679
73.123505 -14.492914 0.75408983
73.763786 -14.068982 0.76052344
92.964127 -14.258926 0.75750834
93.045052 -14.303322 0.76156592
94.514099 -14.301513 0.8126111
95.172043 -14.045878 0.82846248
99.517548 -14.093087 0.98222518
57.076656 -13.724045 0.77022696
57.752674 -13.719985 0.76350141
70.284386 -13.957289 0.58366412
93.12085 -13.876775 0.75221747
99.546005 -13.962055 0.97969198
57.341473 -13.241516 0.71760178
57.565063 -13.104874 0.70114326
92.307693 -13.125925 0.70292437
96.15329 -13.294107 0.84221184
99.275383 -13.277822 0.95177603
55.482307 -12.779265 0.70053995
55.553497 -12.746387 0.69579637
58.040291 -12.510516 0.63517421
73.267738 -12.621333 0.646106
92.092552 -12.85043 0.6877594
95.372833 -12.717588 0.79911333
57.906452 -12.468444 0.63194591
70.349655 -12.215661 0.99538106
95.584229 -12.203587 0.79269838
98.248932 -12.480062 0.89423108
99.122574 -12.073174 0.91443789
57.753223 -11.501803 0.53363967
71.461319 -11.829871 0.50317717
72.365715 -11.503541 0.53045034
79.28595 -11.546822 0.93750089
96.358658 -11.951981 0.81332552
96.53698 -11.745642 0.81415462
99.140671 -11.928916 0.9112947
56.424446 -11.14592 0.51945019
57.325909 -11.304454 0.70273262
57.70594 -11.291379 0.76827288
58.119503 -11.1452 0.91807312
70.307091 -11.053981 0.88447702
70.524429 -11.269276 0.91956162
72.255531 -11.188518 0.5056293
72.57859 -11.115188 0.51870942
79.755455 -11.120299 0.94568014
95.809143 -11.231294 0.77477342
97.780945 -11.079504 0.84079254
98.150749 -11.327638 0.86040664
100.45815 -11.040746 0.93512845
101.06343 -11.07788 0.95767236
70.330177 -10.819412 0.86476529
70.788727 -10.65086 0.88264638
71.871269 -10.70939 0.96953458
72.13797 -10.736702 0.99260837
72.790833 -10.826843 0.51337951
79.201721 -10.93393 0.90160775
97.869057 -10.758637 0.83560032
100.31244 -10.644556 0.91978115
49.421715 -10.364408 0.70675862
51.513115 -10.171619 0.59474468
57.710342 -10.069592 0.78321177
70.457245 -10.425804 0.83816928
70.866112 -10.254835 0.85329437
97.943359 -10.440777 0.83003497
100.28431 -10.135018 0.90581387
51.947914 -9.6813622 0.53558004
52.154068 -9.6870966 0.52703881
55.295273 -9.8849077 0.85742867
57.259411 -9.8585672 0.76994246
57.631275 -9.8614979 0.75790071
48.294827 -9.1089106 0.67264044
56.294178 -9.0454626 0.70520949
56.796852 -9.0888214 0.68819273
57.153465 -9.1582747 0.68254828
96.854683 -9.4691706 0.76630664
100.63911 -9.0933428 0.89236999
51.860909 -8.5727034 0.92840612
52.050659 -8.6514893 0.92233014
53.363766 -8.5358 0.81704986
56.168388 -8.7363091 0.67310435
56.732819 -8.9357433 0.67157495
61.428276 -8.5342903 0.66209191
61.549236 -8.5496264 0.73483294
100.60852 -8.8768272 0.88589793
22.840473 -8.4060545 0.82606614
49.817551 -8.0299702 0.51578045
51.247753 -8.1475143 0.93375397
51.75148 -8.2338724 0.90316963
52.078846 -8.4746132 0.9023236
53.786842 -8.234663 0.75587916
54.33532 -8.0498142 0.69918859
55.322083 -8.1561527 0.64966536
55.784897 -8.158988 0.65195459
56.169941 -8.2193556 0.76155782
61.439114 -8.4999781 0.51828039
61.519745 -8.4990435 0.82988954
74.965088 -8.3628826 0.50804496
75.221992 -8.4371948 0.52784598
24.514053 -7.6298418 0.74732268
50.780224 -7.5456338 0.91566908
51.345421 -7.7816772 0.89144534
51.558559 -7.711936 0.8678726
53.469433 -7.5240712 0.70342302
53.746666 -7.7201777 0.70401311
54.153107 -7.8958678 0.69460028
55.454742 -7.5891261 0.7327897
55.798641 -7.6736197 0.92602044
56.115845 -7.8195496 0.92225707
24.120138 -7.2944894 0.74966794
25.976267 -7.3275156 0.69045019
48.835308 -7.1884809 0.5149377
49.478012 -7.0741673 0.98611987
49.730743 -7.2338023 0.97747803
50.203449 -7.2841187 0.94111609
50.749001 -7.1368222 0.88208199
51.247654 -7.2266383 0.84854478
51.586548 -7.4058275 0.83704996
53.564651 -7.4936423 0.69337368
55.321186 -7.3245344 0.73619884
55.729645 -7.383173 0.77160329
56.028603 -7.4670281 0.87747109
63.872746 -7.1065178 0.92348307
47.382946 -6.7280469 0.57282358
47.525738 -6.5385456 0.55327547
48.769669 -6.9240637 0.50221801
49.385128 -6.9518542 0.98434383
49.689178 -6.8991895 0.95331371
63.828255 -6.9179106 0.88104403
64.012657 -6.8782663 0.88473558
83.013924 -6.6521606 0.96860838
46.874092 -6.1729765 0.57277906
47.062469 -6.0968218 0.5569697
47.628239 -6.2783198 0.53228158
48.8022 -6.1008048 0.97141987
46.49884 -5.6629076 0.56921864
46.775002 -5.8363395 0.56094992
47.807007 -5.9609337 0.50360715
48.292236 -5.7837005 0.996243
48.783344 -5.9426045 0.96168154
93.19239 -5.2712688 0.53120416
60.873756 -4.7711797 0.63719815
92.76255 -4.8679762 0.50611544
43.996967 -4.0423903 0.65708542
44.030895 -4.1680703 0.65998834
44.916508 -4.1448388 0.60055804
49.769871 -4.3335395 0.75968224
93.162117 -4.4900808 0.5116818
99.196472 -4.3420639 0.7267518
27.617512 -3.5464442 0.52700388
38.763615 -3.8129406 0.99810612
20.83983 -3.2550964 0.74493551
27.655684 -3.2948778 0.51914895
14.001545 -2.8067482 0.96202123
93.945061 -2.917639 0.50400925
98.196518 -2.455195 0.64806247
86.863609 3.7292473 0.98354417
87.048515 3.578958 0.99867654
54.960915 4.3442211 0.97397697
55.072834 4.3467236 0.75649863
85.210022 4.4826193 0.85741854
19.989887 4.7768354 0.61209154
54.126961 4.6664858 0.82158679
54.853287 4.7717767 0.72266513
55.244167 4.7025471 0.82162565
55.603348 4.981679 0.9292165
64.922394 4.9634109 0.50996441
65.238564 4.955976 0.55299944
65.64679 4.9825249 0.61847866
66.431694 4.9425254 0.5076105
66.50779 4.9488764 0.51975858
84.481422 4.9905796 0.80084872
84.752808 4.8564563 0.82125854
85.071617 4.5809155 0.84658349
87.183517 4.6723957 0.99443102
14.130995 5.1640282 0.80067998
36.449348 5.474721 0.98082793
45.727707 5.2475085 0.9748382
46.129791 5.4624934 0.93895614
54.944527 5.0128508 0.72981644
55.409668 5.0123138 0.66455328
55.606472 5.1728315 0.75071734
64.694511 5.1818476 0.7276634
65.288849 5.2576056 0.83312041
65.732605 5.0216289 0.63819116
66.29097 5.1865435 0.75468498
66.616982 5.0352917 0.54675055
84.440445 5.3104391 0.79500115
84.657501 5.2977114 0.81030929
86.879929 5.2396789 0.9668591
100.91972 5.3300977 0.58962119
105.47049 5.26192 0.75576425
36.351639 5.6829696 0.98674637
36.681068 5.8426971 0.96448421
37.146553 5.9199562 0.93348539
38.139782 5.9078331 0.86775494
38.61985 5.9233503 0.83604735
40.299149 5.8838944 0.72548884
41.796066 5.9110165 0.62759733
45.752014 5.524014 0.97686887
46.34309 5.573607 0.92024499
46.800007 5.7602153 0.87980336
62.818085 5.947844 0.51387125
80.793228 5.9628124 0.53651422
84.315453 5.6880217 0.78301644
84.638664 5.8942432 0.80389768
100.82814 5.7305188 0.5789448
105.78253 5.5962925 0.7608254
111.9453 5.5849442 0.98442566
37.359444 6.0076985 0.91929317
38.650692 6.0896225 0.83404809
40.411678 6.0183606 0.71831167
40.694023 6.0226946 0.69984066
41.86319 6.1165795 0.62389803
42.384312 6.1532125 0.59026057
42.697952 6.0599451 0.5695256
46.499386 6.0118771 0.91404557
46.860176 6.1225214 0.88208705
47.134903 6.2866049 0.85999799
47.840405 6.3799477 0.79611766
54.739647 6.3026738 0.67399275
55.473625 6.1097698 0.76589501
55.621048 6.1628332 0.75326204
56.296833 6.4287567 0.70362353
64.624458 6.4342408 0.74948913
80.716499 6.2252936 0.52996141
82.282425 6.2732525 0.63768119
84.408447 6.2690773 0.7851125
84.563499 6.1675477 0.79659092
46.457222 6.7815003 0.936764
46.771645 6.5891361 0.90207899
47.739243 6.7847614 0.81730086
48.052391 6.9102516 0.79232633
54.332764 6.556829 0.59825993
54.606762 6.5123615 0.91905761
55.36055 6.7377043 0.84940225
56.27177 6.6113381 0.72856283
64.808655 6.8585539 0.58924079
80.446533 6.7010288 0.50960338
80.821716 6.6197805 0.5355531
84.338669 6.6036162 0.77804917
84.702759 6.7953281 0.80209851
85.815231 6.6763778 0.88004005
46.86747 7.0877838 0.9070645
47.491623 7.0843368 0.84931457
47.994019 7.059844 0.80250227
55.394638 7.0757728 0.76949078
59.539619 7.4628525 0.86383736
65.997467 7.4691114 0.80364859
66.17067 7.3483639 0.64958143
81.327858 7.2835064 0.56804901
82.010895 7.3765841 0.61434472
47.281796 7.727262 0.88972288
47.620117 7.9736986 0.86813688
53.796768 7.8831353 0.76168031
54.455925 7.8418517 0.69533587
55.131153 7.6383629 0.61498046
55.597363 7.9808717 0.97268075
57.99128 7.7835178 0.72754145
58.031528 7.8042746 0.72768027
58.909912 7.8093834 0.67125309
59.295124 7.6635962 0.712798
59.522995 7.5089898 0.87381697
60.286869 7.9644337 0.92919862
60.832325 7.9134998 0.90388131
66.141792 7.6360888 0.5409078
80.415642 7.8961525 0.50541663
80.549423 7.726923 0.5145312
47.334187 8.0275459 0.89563096
47.823277 8.0890932 0.85450155
48.069363 8.3424368 0.84291631
55.646469 8.0339069 0.97428846
60.308678 8.159811 0.78414607
60.714855 8.2414103 0.80909842
61.038502 8.1062994 0.94030362
80.397552 8.171896 0.50419891
80.573425 8.4993086 0.51611388
82.976387 8.4768915 0.67758632
83.12677 8.2862597 0.68808717
6.7362747 8.5872974 0.99687159
48.145969 8.7282486 0.85243702
57.924946 8.8782568 0.8977415
58.116749 8.7859459 0.871189
59.571514 8.9180717 0.81973094
61.379112 8.8380146 0.77461314
80.44841 8.6336613 0.50792444
80.686737 8.7454882 0.52392679
83.365448 8.6325455 0.70369405
6.7057228 9.3653498 0.98809099
20.705288 9.2922697 0.53307176
48.12793 9.1252747 0.87142891
57.643387 9.3012857 0.98111284
58.457989 9.0820284 0.89721775
58.584305 9.1028986 0.54975253
59.228355 9.2710228 0.6778475
61.297672 9.2972555 0.79995632
65.028931 9.1664152 0.98144412
85.665298 9.0843611 0.85881233
48.323746 9.7471437 0.88433921
55.691494 9.6926003 0.78125656
56.76152 9.9717302 0.74473685
58.707817 9.9893665 0.65782642
60.289314 9.5211725 0.55987328
64.793221 9.7183828 0.69987583
80.869804 9.7526989 0.53819227
6.7815475 10.358111 0.97392881
48.331123 10.323781 0.91273373
54.30064 10.49669 0.96934104
55.429745 10.115547 0.84574747
55.758095 10.285951 0.84269488
56.38652 10.453348 0.82279706
56.911312 10.036161 0.74388134
58.690277 10.205791 0.6861766
59.198433 10.371178 0.69296861
60.224766 10.296183 0.66462237
64.842758 10.236383 0.77111703
80.496506 10.177631 0.5154013
80.561417 10.049072 0.51908875
47.889587 10.84051 0.97477341
54.377037 10.601625 0.85973036
54.531178 10.755494 0.51763952
55.942097 10.56013 0.86194754
56.134132 10.562478 0.85050344
56.637737 10.912164 0.8630842
47.834545 11.03023 0.9891367
54.579235 11.239658 0.55359995
55.51923 11.439068 0.52601075
56.889042 11.10174 0.8729713
83.630608 11.26422 0.72398794
55.029037 11.985914 0.59365797
57.411591 11.599297 0.91048604
85.0616 11.602578 0.81897235
54.928177 12.106188 0.60827303
55.398335 12.109615 0.58831286
83.654068 12.043337 0.72856188
8.0567932 12.672834 0.90910506
59.832855 12.761151 0.65872765
60.149937 12.660509 0.98389757
60.652542 12.705625 0.83687288
80.598557 12.748796 0.53889662
60.303802 13.433831 0.61366749
60.90543 13.308239 0.60358548
76.444649 13.358537 0.97882771
45.369556 13.987548 0.5782724
45.937431 13.947997 0.54954183
46.235813 13.934775 0.53492111
46.58123 13.92157 0.51822424
58.697941 13.652193 0.64299941
60.046436 13.75835 0.64579153
76.318665 13.682933 0.98111326
82.064362 13.647973 0.63796842
83.396645 13.861819 0.72320282
83.799438 13.906254 0.7489481
44.264839 14.431232 0.64757973
46.704315 14.39671 0.53047264
59.41024 14.277534 0.69906271
59.689564 14.150051 0.68540925
83.922089 14.365659 0.76015258
46.715988 14.535815 0.53530192
46.806137 16.244379 0.60077268
84.686829 16.243107 0.82419145
46.827293 16.614162 0.61568975
57.208054 16.575619 0.94816053
84.905045 17.496187 0.85045385
69.479706 18.841793 0.78599286
58.479103 19.404285 0.52460444
58.637981 19.438511 0.52730238
59.893539 19.399393 0.53219146
60.049465 19.444025 0.53653574
60.991676 19.479654 0.54976189
60.49369 19.761747 0.56221974
60.740524 19.691648 0.56057966
61.052979 19.529215 0.55390143
61.720325 19.959372 0.59285873
68.423035 19.64299 0.78426099
69.6129 19.983067 0.86210728
58.065712 20.429642 0.59035778
60.015659 20.397877 0.59926307
60.608406 20.051382 0.58278406
61.224411 20.269415 0.60558856
61.889977 20.085453 0.60419869
57.739815 20.723866 0.6091283
60.189522 20.629236 0.61635751
61.987221 20.838882 0.65612745
62.131077 20.940531 0.66556937
60.224331 21.220613 0.65586805
61.261368 21.282602 0.67359382
62.386471 21.272055 0.69260097
62.608917 21.465096 0.70997071
67.991669 21.300365 0.86967897
68.236473 21.322382 0.88151979
62.835369 21.606094 0.72418118
63.018745 21.588106 0.72701716
67.871887 21.729731 0.89197826
61.520889 22.093752 0.73163283
58.774345 22.980066 0.75967777
