# .PCD v0.7 - Point Cloud Data file format
VERSION 0.7
FIELDS x y z
SIZE 4 4 4
TYPE F F F
COUNT 1 1 1
WIDTH 1504
HEIGHT 1
VIEWPOINT 0 0 0 1 0 0 0
POINTS 1504
DATA ascii
94.845398 -11.293207 -1.3322885
97.16304 -11.08602 -1.3682122
101.93911 -11.436439 -1.4450558
52.355858 -10.724487 -1.0748676
52.565048 -10.842854 -1.0731196
54.849812 -10.58504 -1.0418103
79.496353 -10.990268 -1.1037657
97.256966 -10.918861 -1.3692892
97.741989 -10.694822 -1.3764783
98.302216 -10.559239 -1.3851116
103.80479 -10.97028 -1.4742063
104.32516 -10.969041 -1.4826026
50.927887 -10.053259 -1.0892704
54.713219 -10.360212 -1.0412482
74.742477 -10.243936 -1.0380435
98.469894 -10.481725 -1.3876295
98.605644 -10.189428 -1.3892264
103.45311 -10.131948 -1.4673163
50.278084 -9.5344982 -1.0950401
50.748169 -9.7561731 -1.0897006
55.290146 -9.5782528 -1.4964669
55.76598 -9.919095 -1.4923486
98.688553 -9.9521427 -1.3901198
99.030052 -9.8570881 -1.3954456
49.838081 -9.070364 -1.0985954
50.359432 -9.1510439 -1.0912381
50.765335 -9.2584877 -1.0859044
51.182838 -9.2394333 -1.0796074
51.55468 -9.2422171 -1.0741937
54.782581 -9.1013966 -1.4984906
99.458099 -9.2533054 -1.4014285
49.422993 -8.7241812 -1.102856
49.759472 -8.8705444 -1.0985541
50.262104 -8.7811022 -1.0903227
51.807999 -8.9472055 -1.0683589
54.661934 -8.9773579 -1.4988774
101.84857 -8.5892191 -1.4395773
102.25841 -8.9684505 -1.4465972
48.828636 -8.1136475 -1.1088133
49.192719 -8.1888666 -1.1034423
49.620316 -8.2708063 -1.0971652
50.209122 -8.4444141 -1.0890319
61.214836 -8.4350491 -1.2829689
101.8439 -8.2421141 -1.4392436
48.277817 -7.6690454 -1.1154826
48.776581 -7.7856989 -1.1079903
49.226555 -7.721921 -1.1004603
50.422394 -7.9756613 -1.0829505
46.960258 -7.2962327 -1.1355174
47.079681 -7.0995402 -1.1327878
47.717731 -7.3054938 -1.1230518
48.242241 -7.4411101 -1.1150253
46.303154 -6.5918241 -1.1440774
46.692638 -6.7964616 -1.1381818
47.043419 -6.9368396 -1.1327935
45.773693 -6.1347823 -1.1517857
46.084084 -6.3884482 -1.1471834
97.958618 -6.0497127 -1.3745925
45.312786 -5.5259395 -1.1583208
45.581635 -5.9145412 -1.1545279
44.957764 -5.4195423 -1.1642702
45.155762 -5.233851 -1.1605188
91.486893 -5.4984055 -1.2679368
91.685081 -5.2414637 -1.2711064
92.287659 -5.3661909 -1.281047
102.53792 -5.0145011 -1.4509044
44.782967 -4.6638303 -1.1662058
45.07497 -4.8719482 -1.1613574
60.700317 -4.869483 -1.2505744
91.844307 -4.7495403 -1.2736692
98.478584 -4.7423005 -1.3836083
102.54967 -4.8731327 -1.4512172
44.932171 -4.2296529 -1.1631547
49.552868 -4.3674798 -1.0827166
91.954071 -4.4956942 -1.2755066
92.314171 -4.2599626 -1.2815434
93.785057 -4.0857687 -1.3060322
40.564697 -3.5144029 -1.2405503
41.916412 -3.5689826 -1.2164153
42.773518 -3.5709538 -1.2011462
43.762802 -3.5742171 -1.1835485
44.483734 -3.5775812 -1.1707416
44.783001 -3.7987821 -1.1655166
92.293526 -3.757715 -1.2814593
96.756561 -3.840246 -1.3556755
97.170525 -3.6612194 -1.3627638
98.717255 -3.7313588 -1.3884894
34.715233 -3.0074558 -1.3458526
35.218945 -3.1543219 -1.3366276
35.89629 -3.272567 -1.3243361
37.24596 -3.2427266 -1.3001455
38.377182 -3.2760506 -1.2798339
39.14225 -3.3458996 -1.2660785
40.223053 -3.3554709 -1.2467318
40.590569 -3.4251926 -1.2401258
41.347473 -3.4666266 -1.2265903
41.70797 -3.4865272 -1.2201508
92.648239 -3.3005853 -1.2877452
97.844421 -3.0446398 -1.3748087
98.978073 -3.2781775 -1.3934264
32.488285 -2.7609086 -1.3862703
32.621964 -2.7473257 -1.3838899
33.340225 -2.9484293 -1.3706626
34.107292 -2.971365 -1.3568317
92.479156 -2.8786111 -1.285387
93.085922 -2.7459712 -1.2956911
93.543594 -2.8997948 -1.3031344
97.82653 -2.8623185 -1.3747849
32.716431 -2.2442632 -1.3830156
92.979004 -2.0311778 -1.2950137
93.181396 -2.1501677 -1.2981966
32.906826 -1.7868727 -1.3804443
33.209774 -1.2888273 -1.3760525
33.427757 -0.7768451 -1.3733606
33.671108 -0.30175141 -1.3702416
34.02906 0.30713704 -1.3655934
34.031685 0.82975721 -1.367292
34.13969 1.2492421 -1.3668563
52.971745 1.4892812 -1.0274974
62.564617 1.4861612 -1.3629348
34.158005 1.8330779 -1.3687998
52.969654 1.7662039 -1.2278304
53.031109 1.7317469 -1.140678
61.377449 1.6474979 -1.2689131
61.594093 1.7703807 -1.2511683
62.564766 1.5444597 -1.3538207
34.284027 2.1420035 -1.3678041
34.629356 2.382051 -1.362604
34.368572 2.7106097 -1.3687968
34.818638 2.7778864 -1.3609779
58.803291 2.8192425 -1.1429658
34.477203 3.0146439 -1.3682504
34.546642 3.1184266 -1.3674963
42.973778 3.4822471 -1.2178562
43.683475 3.4574776 -1.2049985
44.232018 3.4482398 -1.1951221
44.96402 3.4068291 -1.1817772
45.310329 3.4211857 -1.1756678
45.860123 3.433147 -1.1659119
58.963978 3.3853292 -1.2043977
59.227707 3.3434238 -1.1942059
59.717392 3.3426862 -1.2808847
60.016796 3.485126 -1.1061476
45.935715 3.5162957 -1.1650693
46.283398 3.6514816 -1.1597153
46.673603 3.8679256 -1.1541687
58.991802 3.6663785 -1.1574287
59.354538 3.6186283 -1.2507441
59.711819 3.7394781 -1.2252264
60.291985 3.7466552 -1.2445426
62.026428 3.9589734 -1.4952843
46.869873 4.1775527 -1.1527928
47.064468 4.3723412 -1.1507158
59.19289 4.2488799 -1.2441038
59.789722 4.1508327 -1.283709
60.254051 4.304481 -1.2152696
60.672668 4.1982164 -1.4351299
61.15583 4.3003359 -1.4442551
62.13319 4.0328813 -1.49676
65.295891 4.4907012 -1.4954163
65.622604 4.49435 -1.0556421
66.330734 4.4515047 -1.2259185
85.646194 4.3776503 -1.1970772
94.423698 4.3291535 -1.3425632
99.018379 4.3088779 -1.4191313
99.786171 4.237236 -1.4315995
47.227024 4.7603164 -1.1507131
58.897858 4.9862103 -1.4539455
59.26825 4.6406512 -1.4083083
59.712368 4.5750613 -1.3748068
60.356285 4.8120432 -1.2362795
60.911896 4.8984046 -1.2694018
61.292309 4.6670318 -1.4407015
61.752361 4.7717366 -1.4519709
64.387733 4.7212119 -1.3249246
64.764145 4.5761738 -1.279595
65.201881 4.5503602 -1.2088896
65.675529 4.5384955 -1.0588579
66.208466 4.5839953 -1.1395652
66.551834 4.5798469 -1.4124517
85.347694 4.6275811 -1.1937885
85.958199 4.9069233 -1.2057194
88.860596 4.5739088 -1.2515002
93.813286 4.8809156 -1.3355353
94.189644 4.5113802 -1.3396763
99.162766 4.7570181 -1.4239173
99.609955 4.6249576 -1.4306703
47.379482 5.2573819 -1.1519279
60.403687 5.2259698 -1.242444
60.648075 5.2786479 -1.2060834
61.955688 5.1075883 -1.4771836
62.289165 5.1163821 -1.4611138
62.659092 5.353828 -1.4729253
84.944283 5.49367 -1.19327
85.243469 5.2190189 -1.1961637
98.749878 5.215405 -1.419577
47.415634 5.6635585 -1.1546388
47.531311 5.8851891 -1.1545352
60.333679 5.8077974 -1.3631742
60.69075 5.7929749 -1.3025566
61.315636 5.9474945 -1.3867984
61.584839 5.9785008 -1.3784029
62.765614 5.7425098 -1.3748971
63.133488 5.6842403 -1.4974546
84.972122 5.80792 -1.1960895
85.137054 5.6955032 -1.1979218
86.973236 5.8234897 -1.2288183
88.064545 5.5591493 -1.244815
88.94104 5.8384795 -1.2611475
91.223824 5.5552788 -1.2968073
94.002808 5.6552863 -1.3433781
98.766861 5.8746338 -1.4236887
100.34143 5.7369189 -1.4490368
47.490471 6.1253891 -1.1573411
47.602444 6.273047 -1.1567523
60.172665 6.1721234 -1.457857
60.699299 6.1544456 -1.3120198
61.320045 6.0433078 -1.3943971
61.751545 6.3063188 -1.3995682
62.074055 6.4924583 -1.4045715
77.598061 6.1844234 -1.0821145
84.819672 6.4632311 -1.1988081
85.478333 6.4163227 -1.2090533
86.761864 6.1060586 -1.2274648
91.071335 6.1102037 -1.2980125
99.408279 6.2878008 -1.4368379
47.697762 6.7737079 -1.1597712
61.979794 6.5216856 -1.4099855
62.237576 6.7049437 -1.4182314
62.602692 6.9203529 -1.4277736
85.180984 6.7282896 -1.2068034
89.452042 6.505939 -1.2743003
47.802456 7.2342238 -1.1624705
62.85215 7.1606593 -1.4439324
63.13916 7.4256706 -1.4627852
81.725723 7.397109 -1.158072
100.72287 7.4954185 -1.4662411
63.267708 7.6818428 -1.4840527
83.620895 7.7654152 -1.1912134
87.059303 7.9065242 -1.246884
89.819656 7.5467834 -1.2882361
91.358673 7.7218308 -1.3145376
60.918972 8.3428335 -1.2972822
61.21344 8.4331121 -1.2961059
61.549656 8.4660873 -1.2915312
79.046379 8.2718096 -1.1265807
85.822357 8.0038347 -1.2280989
86.492874 8.3269272 -1.2416344
86.581818 8.4463749 -1.24413
89.328156 8.1218777 -1.2850125
91.203629 8.4416447 -1.3177992
92.29731 8.4487638 -1.3354803
60.7915 8.5111027 -1.3086329
61.233967 8.6768227 -1.3084344
61.753391 8.9100361 -1.3118553
62.094898 8.7203112 -1.2965441
80.977402 8.9272337 -1.1626577
84.631981 8.7234812 -1.2162299
85.187462 8.8649149 -1.2262466
86.408905 8.5591373 -1.2424438
59.403969 9.436018 -1.0298412
61.488865 9.0377893 -1.3228781
61.796894 9.1480598 -1.3239464
62.067154 9.2671404 -1.3264718
80.598259 9.1693697 -1.1597795
85.421745 9.3917284 -1.2351053
90.734589 9.4211369 -1.3186806
91.132065 9.3478003 -1.3243535
91.770508 9.0828371 -1.3322618
59.456612 9.5788021 -1.2387669
59.565304 9.6675205 -1.0327597
62.193703 9.5013199 -1.3375411
82.906464 9.8274469 -1.2014871
90.948196 9.702179 -1.3245773
61.966011 10.098127 -1.3728101
62.248817 10.268778 -1.3787538
62.515469 10.383438 -1.3821782
79.431122 10.368582 -1.1576064
79.544739 10.291197 -1.1582066
85.075165 10.026357 -1.2363452
88.805023 10.1263 -1.2948363
90.11821 10.076134 -1.3149128
94.143494 10.059651 -1.3785599
62.736069 10.615699 -1.3929453
79.499695 10.527922 -1.1606113
83.804932 10.625445 -1.2238213
84.216866 10.752155 -1.231369
88.006424 10.880948 -1.2900202
88.926491 10.776434 -1.3031216
89.176659 10.779388 -1.3070195
89.674927 10.882727 -1.315762
91.458405 10.956785 -1.3442482
93.086296 10.898993 -1.3692639
62.450405 11.188892 -1.4270234
62.571079 11.194343 -1.4262309
80.359573 11.466303 -1.1847184
83.903221 11.295218 -1.232988
88.262115 11.093745 -1.2961333
89.247009 11.116686 -1.3114924
89.571289 11.465135 -1.3200271
62.71785 11.906887 -1.4643053
63.209778 11.87358 -1.4592232
78.083969 11.998774 -1.1618724
81.859436 11.656793 -1.208041
85.492348 11.98247 -1.264292
86.394577 11.782153 -1.2753477
89.888458 11.924318 -1.3296249
62.842167 12.242081 -1.4819064
63.266899 12.130615 -1.4731882
63.630047 12.239015 -1.4776076
75.847748 12.353482 -1.1400633
76.354263 12.197111 -1.1435401
76.655632 12.203595 -1.1472387
77.466454 12.289074 -1.1583964
77.791542 12.348406 -1.163311
78.116699 12.192372 -1.165099
79.326042 12.170463 -1.1803777
80.968903 12.18717 -1.2025893
84.204468 12.341044 -1.2498798
87.894073 12.035744 -1.300586
89.91153 12.096439 -1.3317757
90.026283 12.42098 -1.3369465
75.703697 12.749525 -1.1447352
76.565956 12.65595 -1.1531521
77.479538 12.679338 -1.1644222
77.552742 12.616312 -1.1643621
78.296593 12.599669 -1.1733246
79.034966 12.578215 -1.1823797
80.908524 12.899141 -1.2114017
81.094093 12.901243 -1.2139072
85.792358 12.737071 -1.2775495
89.777115 12.631237 -1.3354309
59.702572 13.476487 -1.1053882
74.40976 13.376899 -1.1412791
74.717705 13.437855 -1.1454597
75.24472 13.40089 -1.1503562
75.663857 13.27839 -1.1528531
76.811241 13.123028 -1.1633103
80.216385 13.319154 -1.2081861
84.893066 13.49338 -1.2739553
85.188629 13.428715 -1.2773249
89.706039 13.092294 -1.3393884
59.772968 13.569242 -1.1067733
75.393219 13.749249 -1.1577061
77.118515 13.891943 -1.1789832
81.349144 13.845423 -1.2303586
82.580048 13.708642 -1.2448306
83.896553 13.643843 -1.2619603
88.365463 13.992574 -1.3298616
89.749184 13.843464 -1.348454
75.776711 14.111444 -1.1677834
89.775932 14.316069 -1.3542851
75.673714 14.785183 -1.178023
89.796043 14.795605 -1.3601954
75.447891 15.286716 -1.184314
75.528778 15.068563 -1.1813709
89.819916 15.219729 -1.3655915
75.775345 15.72378 -1.1950549
83.261047 15.891806 -1.2841673
85.736633 15.885261 -1.3167987
89.853439 15.720198 -1.3721373
89.894089 16.172318 -1.3782768
89.889679 16.535343 -1.3827417
84.275375 17.069582 -1.3140851
88.037003 17.35417 -1.3676765
57.14325 17.893358 -1.2093613
75.754471 17.939005 -1.2337246
87.958214 17.865183 -1.3735085
88.009254 17.775349 -1.3729739
89.951927 17.723648 -1.398802
74.85923 18.19034 -1.2305561
75.219795 18.111584 -1.2321626
75.683311 18.067904 -1.2354044
76.149338 18.194389 -1.2418242
76.775635 18.045959 -1.2450056
77.313225 18.143538 -1.2518542
89.99472 18.345926 -1.4075532
78.199905 19.837484 -1.2898163
75.459969 20.224539 -1.272764
75.614471 20.258598 -1.2746255
76.001297 20.211634 -1.2769121
90.827827 20.849701 -1.4527335
91.042694 20.719057 -1.4537646
62.443428 21.326836 -1.2540241
90.817169 21.437742 -1.4608201
50.90081 21.828732 -1.3373791
59.48719 21.655485 -1.2706389
59.718872 21.672602 -1.2699734
62.172871 21.827185 -1.2649621
62.633865 21.717575 -1.2617003
90.830795 21.675797 -1.4643607
50.782436 22.451529 -1.3498132
51.063934 22.248325 -1.3433867
59.899147 22.128834 -1.278494
60.066269 22.070211 -1.2766253
61.858139 22.307564 -1.2756363
62.859879 22.301634 -1.2733452
50.583771 22.60166 -1.3544781
51.181866 22.80794 -1.3524847
51.522007 22.96599 -1.352199
59.102341 22.814602 -1.2958792
61.431602 22.905415 -1.2890947
61.609669 22.74902 -1.2853825
62.981705 22.799337 -1.2834263
63.138317 22.721619 -1.281572
79.733025 22.90007 -1.3579365
51.176331 23.021479 -1.3564409
51.608032 23.189926 -1.3555483
63.24593 23.227852 -1.2918878
63.418858 23.572718 -1.298786
63.744667 23.76823 -1.3024642
60.206009 24.460114 -1.3249228
80.6884 24.349279 -1.3923242
52.042915 24.959009 -1.3848066
60.311092 24.605347 -1.3275356
60.597031 24.720261 -1.3289214
80.674576 24.508886 -1.3950164
52.110149 25.246405 -1.3896776
78.798393 25.32637 -1.39347
82.484146 25.430506 -1.4281979
52.212646 25.707605 -1.3975815
78.899628 25.702307 -1.4011903
82.292435 25.725288 -1.4315138
52.355583 26.213491 -1.40607
60.736526 26.914341 -1.3735453
60.42181 27.135065 -1.379038
60.56889 27.103428 -1.377933
59.372635 27.921766 -1.398746
55.851013 31.625113 -1.4896367
60.914303 -14.282626 -0.50952631
61.040634 -14.307211 -0.50942922
57.739983 -13.744556 -0.50428569
57.784496 -13.146264 -0.51598281
57.417206 -12.712859 -0.52153218
57.587761 -12.893991 -0.51937443
57.261509 -12.404323 -0.52610153
57.237068 -11.638632 -0.54004019
73.176392 -11.571125 -0.5130887
56.89867 -11.397839 -0.54158878
57.118233 -11.410679 -0.54322112
73.18119 -11.40404 -0.51591551
54.799423 -10.764319 -0.53229779
55.220669 -10.763702 -0.53672999
54.485458 -10.199419 -0.53810108
54.684479 -10.243865 -0.53958559
55.163319 -10.258374 -0.54455119
54.936985 -9.7797155 -0.54991001
51.358814 -8.7330246 -0.52068394
61.3885 -8.5242558 -0.62716776
61.267651 -8.448885 -0.79156655
60.793514 -5.0068269 -0.69051301
60.748356 -4.8509545 -0.8090995
49.586983 -4.357152 -0.54280889
53.063854 1.6973836 -0.6329627
61.461803 1.724828 -0.90892065
61.545956 1.7202733 -0.87301517
58.879639 3.2758987 -0.74521232
59.249695 3.3107684 -0.78596371
59.649937 3.3804398 -0.83634347
58.726967 3.6889167 -0.67760676
59.315907 3.6423995 -0.5650301
59.77076 3.7322209 -0.71583974
60.165554 3.8251343 -0.80018246
59.902782 4.2293468 -0.53002995
60.167152 4.2643261 -0.78512305
65.968384 4.4773765 -0.90733683
66.02021 4.4814744 -0.90773576
59.965118 4.7560186 -0.59741664
60.203156 4.7661057 -0.80495691
60.75988 4.8357878 -0.88543189
61.022728 4.8766036 -0.77698892
64.359253 4.8603716 -0.80528575
64.754074 4.6742578 -0.8937515
65.243431 4.6696219 -0.88340437
65.763695 4.6291256 -0.90918714
66.218979 4.6561689 -0.91238558
66.635445 4.7855358 -0.77600229
59.963856 5.3108411 -0.72351348
60.297478 5.3054538 -0.7919597
64.376755 5.2779298 -0.71755296
64.834061 5.0392499 -0.75212234
65.1595 5.0717926 -0.75058818
66.734634 5.2584057 -0.64346743
60.40062 5.7481561 -0.72412014
60.629848 5.7526054 -0.93049914
62.730164 5.8959818 -0.68826473
64.452148 5.8452382 -0.62721616
64.710213 5.8021951 -0.62843096
65.108025 5.7456794 -0.64706385
65.974449 5.8811631 -0.66838533
66.229874 5.9152455 -0.5386247
66.720848 5.7008605 -0.63682413
67.136635 5.9546313 -0.72608232
60.361507 6.2573371 -0.74722379
60.673889 6.0252285 -0.85230225
64.467056 6.2293854 -0.53306615
65.314766 6.1545162 -0.73493546
65.939445 6.2507377 -0.67009562
66.006752 6.0960212 -0.5252589
66.683968 6.0926185 -0.55946773
77.660027 6.1880727 -0.57439315
65.825562 6.6570473 -0.72578847
80.921623 6.7799964 -0.51757449
81.100204 6.680418 -0.51483214
81.545242 6.6750207 -0.50726867
65.887215 7.2422385 -0.71747208
81.534622 7.1524572 -0.50607121
65.913483 7.7068911 -0.71096206
65.948982 8.0493183 -0.70608455
80.086342 8.8301888 -0.52324486
80.826241 8.8198996 -0.51135743
59.281357 9.3807936 -0.67194647
59.753052 9.4573679 -0.67457175
80.174316 9.0195122 -0.52088976
59.21064 9.9118299 -0.66500199
59.624371 9.6299238 -0.67151582
79.959572 10.334237 -0.51694518
80.000801 10.437256 -0.51568317
79.122009 10.969875 -0.52551949
79.791183 10.924002 -0.51579559
80.134239 10.718495 -0.51189631
80.758377 10.602969 -0.50299567
78.517838 11.347417 -0.53170824
79.47197 11.459625 -0.5169403
79.788292 11.200698 -0.51401001
80.309494 11.138581 -0.50656217
76.376701 11.986792 -0.55631518
76.716576 11.933203 -0.55224025
78.767578 11.73989 -0.52518058
79.753021 11.955081 -0.50929654
80.020119 11.984025 -0.50517029
76.475449 12.22357 -0.55291033
76.678185 12.06536 -0.55161279
77.042763 12.074734 -0.54662722
77.687737 12.284764 -0.53607017
78.209328 12.152572 -0.52991825
78.744186 12.243955 -0.52166259
79.204521 12.082344 -0.5163281
75.852547 12.784331 -0.55577916
76.27771 12.629878 -0.55181402
76.591034 12.6012 -0.54801917
78.329628 12.549505 -0.52504152
78.566704 12.885106 -0.51901758
59.751312 13.152698 -0.62712586
74.674271 13.072701 -0.56727618
75.09626 13.446482 -0.55850029
75.787086 13.152749 -0.55306971
76.144119 13.275132 -0.54746187
59.834225 13.60799 -0.62152922
60.071659 13.582769 -0.62300509
75.389648 13.564363 -0.55382621
75.715294 13.618598 -0.54937816
76.161942 13.894817 -0.54122889
60.175682 14.252899 -0.61447245
74.819771 14.455088 -0.55113864
75.153976 14.22703 -0.54977024
58.868092 14.75258 -0.60138148
74.434555 14.753668 -0.55211294
74.692139 14.617297 -0.55079085
75.18634 14.561946 -0.54588717
75.886993 14.750664 -0.53588247
57.212364 17.791708 -0.55238831
57.600166 17.989809 -0.55205077
75.970825 17.937006 -0.50050437
76.21595 17.710014 -0.50048113
57.162609 18.022287 -0.54912138
74.778809 18.731689 -0.50301719
75.041451 18.530237 -0.50292623
59.466934 19.271706 -0.54350436
59.766132 19.18379 -0.54576629
59.915894 19.739546 -0.53862989
60.11731 19.802193 -0.53839022
61.307831 20.116367 -0.5369814
61.500729 20.118994 -0.5373112
57.433475 20.969893 -0.51186919
57.513195 20.981533 -0.51210022
59.900803 21.718555 -0.51125503
60.036697 21.619564 -0.51300991
60.160259 22.166052 -0.50575536
54.170357 -38.175228 -0.0029640198
54.822933 -38.438969 -1.168251e-05
59.373596 -37.94836 -0.021584332
59.510265 -37.888996 -0.023016155
85.995522 -32.175682 -0.014759302
54.902626 -31.689569 -0.13612813
59.913902 -31.920729 -0.14640045
60.031013 -31.904043 -0.14693803
86.024994 -31.731848 -0.022327602
86.045914 -31.170551 -0.032028824
55.004784 -30.514551 -0.16006041
86.174194 -30.775963 -0.037605006
54.84877 -30.446426 -0.16073126
72.330505 -30.315701 -0.15866101
72.687462 -30.340403 -0.15632701
54.724888 -29.536461 -0.17829174
72.757675 -29.586151 -0.17109218
41.452209 -29.14572 -0.084973454
41.58326 -29.301678 -0.083613992
50.968056 -29.101492 -0.16571301
89.443588 -29.080843 -0.029456019
36.19101 -28.910439 -0.032255888
41.359856 -28.840734 -0.089236259
42.316864 -28.766228 -0.10006884
51.282864 -28.948462 -0.17068608
71.693123 -28.692099 -0.19458008
89.47683 -28.705902 -0.035238702
41.541534 -28.204977 -0.10186893
55.428505 -28.013844 -0.21183467
34.886993 -27.520115 -0.038628519
35.681229 -27.525686 -0.048013508
55.471039 -27.532682 -0.22161037
86.206238 -27.783161 -0.089020908
35.051323 -27.17025 -0.045944154
37.28616 -27.281708 -0.070581652
71.741325 -27.259367 -0.22319013
34.924561 -26.505854 -0.054469943
36.318974 -26.771921 -0.067206383
74.143478 -26.860796 -0.21697611
36.66124 -26.007929 -0.083038688
60.254551 -26.21085 -0.26427242
70.986801 -26.309078 -0.24613839
73.777817 -25.706165 -0.24208477
74.264801 -25.623041 -0.24042535
74.846977 -25.631775 -0.2361604
75.176392 -25.743715 -0.23158233
89.604652 -25.745932 -0.08141353
73.33165 -25.316101 -0.25268063
74.594284 -25.402582 -0.24242619
89.627167 -25.226091 -0.089303434
71.199547 -24.555122 -0.28036511
86.324287 -24.616314 -0.14054087
89.657692 -24.724642 -0.096732773
41.250431 -24.049652 -0.16716421
86.347435 -24.206078 -0.14694513
89.685326 -24.229998 -0.10402545
69.964668 -23.656303 -0.30464101
70.616119 -23.774275 -0.29909199
86.371521 -23.719393 -0.15452832
41.720718 -23.382673 -0.18313396
70.051651 -23.46484 -0.30810523
74.338997 -23.418343 -0.28278124
86.423569 -23.355797 -0.1597268
86.691383 -23.225729 -0.15843059
44.517693 -22.904072 -0.22170991
73.867851 -22.525326 -0.30354625
74.723579 -22.950439 -0.28887355
73.874939 -21.669462 -0.32002053
74.075241 -21.706903 -0.31776893
72.128166 -21.053194 -0.3444621
56.694225 -20.661074 -0.36369064
86.498405 -20.697441 -0.20040506
86.507515 -20.699196 -0.20025393
60.441906 -20.320698 -0.38527259
60.584469 -20.332911 -0.38537404
86.530029 -20.209166 -0.20740113
89.853249 -20.24745 -0.16083144
74.17968 -19.694729 -0.3553021
74.554626 -19.685087 -0.352312
86.543091 -19.734835 -0.21436362
89.866989 -19.754131 -0.16761094
53.122498 -19.239109 -0.36713654
70.188171 -19.179934 -0.39354822
74.357864 -19.302467 -0.3611877
74.7351 -19.185019 -0.36009723
86.569023 -19.257948 -0.22110805
89.888077 -19.338953 -0.17311931
70.949814 -18.977272 -0.39300311
74.62178 -18.973331 -0.36505601
86.590942 -18.731144 -0.22855845
89.927216 -18.594667 -0.18281072
55.866077 -18.061359 -0.40931293
57.283863 -18.201649 -0.41516301
86.749123 -18.26803 -0.23307018
89.935051 -18.256039 -0.18729322
56.384003 -17.840397 -0.41688976
56.857071 -17.510735 -0.42617545
57.146881 -17.884081 -0.42060947
89.962372 -17.732624 -0.1939176
40.57312 -17.137838 -0.26171082
41.091763 -17.324432 -0.26604152
42.361126 -17.218559 -0.28414062
43.407471 -17.129873 -0.29883644
43.61322 -17.245783 -0.29975837
69.413132 -17.165596 -0.4381569
89.983826 -17.214678 -0.20044944
42.410126 -16.866488 -0.28975737
42.89257 -16.975719 -0.29446763
43.11058 -16.98317 -0.29716566
52.366169 -16.671072 -0.40690273
69.363777 -16.994734 -0.44185105
89.999092 -16.896557 -0.20438045
90.010231 -16.642168 -0.20750467
93.656998 -16.507786 -0.15268487
42.20821 -16.0459 -0.29849046
43.343887 -16.009615 -0.31400561
57.293732 -16.357946 -0.45114708
57.534393 -16.45426 -0.45071417
69.445595 -16.398275 -0.45330304
69.686798 -16.251785 -0.45478532
72.272919 -16.243177 -0.43649486
90.184204 -16.373268 -0.20830272
90.699036 -16.385893 -0.20025206
91.255486 -16.404076 -0.19144684
91.818588 -16.423605 -0.18248183
92.285019 -16.441336 -0.17500407
92.77243 -16.471596 -0.16701835
93.255577 -16.482376 -0.15930822
93.840912 -16.47658 -0.15015531
42.727306 -15.697516 -0.31018108
43.280334 -15.941364 -0.31412888
52.292599 -15.850268 -0.42051941
52.576801 -15.938643 -0.42171615
76.782524 -15.546185 -0.40448809
92.561073 -15.620682 -0.1805684
42.475777 -15.377063 -0.31117558
42.87344 -15.20306 -0.31888634
52.870842 -15.352159 -0.43474472
53.268013 -15.259434 -0.4401319
76.163513 -15.08466 -0.4193716
76.979362 -15.446471 -0.40391821
77.07486 -15.238096 -0.406315
92.441475 -15.291992 -0.18634526
40.678307 -14.862509 -0.29320008
76.243393 -14.660286 -0.42567143
76.766174 -14.74648 -0.41816521
91.856026 -14.646811 -0.20321259
92.09124 -14.586728 -0.20015055
95.347488 -14.840804 -0.14466673
76.464264 -14.274857 -0.42959699
76.739296 -14.394174 -0.42435494
92.722031 -14.103733 -0.19548786
101.76511 -14.082476 -0.045629382
42.285748 -13.748759 -0.32990557
44.039314 -13.606698 -0.3560724
90.866844 -13.687538 -0.23011047
102.03236 -13.740624 -0.044336081
44.302048 -13.423855 -0.36208344
53.322079 -13.071526 -0.47828072
58.276283 -13.122984 -0.0016923547
73.997665 -13.018122 -0.47900492
74.012474 -13.13807 -0.47675523
90.856239 -13.450386 -0.23298311
91.132088 -13.294543 -0.23027629
92.716942 -13.180476 -0.20572013
93.824738 -13.457774 -0.18456006
96.459351 -13.206416 -0.14347607
96.669586 -13.036146 -0.14166117
99.657028 -13.4834 -0.087012976
100.59688 -13.057588 -0.075124502
51.224216 -12.689148 -0.4613246
53.406639 -12.872192 -0.48250508
57.960403 -12.88369 -0.0071746111
58.088081 -12.853244 -0.011483282
74.039581 -12.92828 -0.48010802
91.140381 -12.773534 -0.23591031
92.09362 -12.641694 -0.22173041
92.503349 -12.591159 -0.21552348
93.447601 -12.541867 -0.20041758
97.41153 -12.804992 -0.13146544
57.32132 -12.178254 -0.027499786
57.640404 -12.166486 -0.035829157
58.141132 -12.105089 -0.050466269
71.404266 -12.24893 -0.010553807
71.514023 -12.287811 -0.0057513118
91.890228 -12.191719 -0.2298522
93.177452 -12.114623 -0.20929362
95.440201 -12.144179 -0.17111212
56.764973 -11.769572 -0.032979649
57.266541 -11.702469 -0.049369369
57.959106 -11.922858 -0.055450123
58.1451 -11.915143 -0.060101014
71.42897 -11.887506 -0.027519345
71.654411 -11.796964 -0.025680402
72.215317 -11.544685 -0.021640211
93.66777 -11.608479 -0.20617515
96.237335 -11.754529 -0.16139665
55.095554 -11.330366 -0.0044372678
56.881126 -11.369113 -0.055291951
71.667465 -11.43231 -0.042831432
72.66069 -11.007627 -0.03283608
73.093895 -11.252789 -0.0078951716
79.445694 -11.112623 -0.43861684
79.508331 -11.034841 -0.43877733
95.673309 -11.105303 -0.17706496
103.28741 -11.476106 -0.042869627
54.803219 -10.829862 -0.016964734
55.437576 -10.615631 -0.047051251
72.667534 -10.851059 -0.039726157
79.570679 -10.998349 -0.43836734
95.703354 -10.748055 -0.17982753
96.07814 -10.503722 -0.17562079
98.655014 -10.728952 -0.12932342
99.718811 -10.869505 -0.10975349
44.159775 -10.332479 -0.39830619
45.489403 -10.047087 -0.42113927
45.776974 -10.056726 -0.42521665
46.763962 -10.300652 -0.43645999
47.876728 -10.444388 -0.45032212
48.077744 -10.392727 -0.45378187
55.469715 -10.338526 -0.060283601
96.084076 -10.257957 -0.17769645
96.70266 -10.214482 -0.16743469
98.372391 -10.172079 -0.13896078
45.461357 -9.7634754 -0.42403466
46.40448 -9.8249683 -0.43708646
47.756561 -9.5543633 -0.45983374
48.429245 -9.5681143 -0.46922368
55.174614 -9.9790668 -0.066038698
56.904133 -9.6164961 -0.1376808
57.096088 -9.7952909 -0.13525462
97.680984 -9.5113058 -0.1564588
103.21878 -9.6243372 -0.058851182
104.9613 -9.7002554 -0.027676821
105.05856 -9.57341 -0.026910067
44.12117 -9.1135559 -0.41126722
45.482063 -9.0854979 -0.43203878
45.503677 -9.1962729 -0.43112347
47.552708 -9.3602247 -0.45926979
49.787788 -9.3239822 -0.4913367
56.225605 -9.1728039 -0.13591954
56.724258 -9.4581566 -0.13932905
97.80365 -9.2094336 -0.15678038
98.356461 -9.4537821 -0.14518237
102.57982 -9.2496634 -0.072906494
105.2254 -9.4629087 -0.024788976
44.587334 -8.8928328 -0.42069158
45.259499 -8.8647528 -0.43113711
47.281326 -8.7396631 -0.46262932
55.852734 -8.5504065 -0.14961931
56.177929 -8.6064453 -0.15858075
61.437355 -8.5205488 -0.299346
97.881683 -8.8094683 -0.15861326
98.725922 -8.7833233 -0.14405483
99.078842 -8.7476149 -0.13815022
44.961555 -8.2698841 -0.43296701
45.089699 -8.2678022 -0.43493342
47.313454 -8.1933365 -0.46930772
51.839123 -8.1718025 -0.0061420202
52.025307 -8.2843208 -0.010299444
53.917633 -8.1169586 -0.093733549
54.307175 -8.246088 -0.10426334
54.623508 -8.2099504 -0.11786377
55.317467 -8.0260086 -0.15132874
55.739178 -8.3592253 -0.15344565
56.101768 -8.4676638 -0.16179213
61.319202 -8.4652166 -0.30043921
22.418812 -7.6634092 -0.075002074
22.502243 -7.7986422 -0.075485885
45.093937 -7.7087312 -0.44074273
46.942497 -7.9267654 -0.46668702
51.352158 -7.5910125 -0.0037235916
51.626362 -7.7621875 -0.010294504
53.90852 -7.9733605 -0.098602831
55.220154 -7.93677 -0.15113726
55.834557 -7.7614532 -0.18101934
36.854713 -7.1939154 -0.31461722
37.149872 -7.1112661 -0.32005453
43.815933 -7.4027648 -0.42387035
44.847191 -7.1230068 -0.44267058
45.083012 -7.3015466 -0.44461554
51.255394 -7.4946246 -0.0024244785
36.758427 -6.8128614 -0.31604087
44.813858 -6.9043775 -0.44422352
30.090078 -5.683012 -0.21448863
30.090843 -5.4409575 -0.21602023
92.37429 -5.0188189 -0.28324503
98.930191 -5.0481286 -0.16612834
30.835415 -4.8935933 -0.23170391
60.782974 -4.8308434 -0.25146687
92.496658 -4.7365112 -0.28289813
92.657463 -4.766221 -0.27983606
99.13092 -4.9551945 -0.16309059
31.724716 -4.2291703 -0.25037491
43.932327 -4.1694312 -0.45265174
44.854145 -4.1039147 -0.46821308
49.647491 -4.3583326 -0.0057888506
93.239014 -4.3048043 -0.27234238
31.855854 -3.8011253 -0.25496146
35.60223 -3.9302425 -0.31657997
38.671162 -3.8305926 -0.36811188
91.032761 -3.5139911 -0.3165071
92.735138 -3.8661888 -0.28397089
93.499374 -3.6689279 -0.27141666
93.520523 -3.7760317 -0.27042633
32.070446 -3.259814 -0.2614488
90.961082 -3.0714097 -0.3202967
91.02565 -3.2224185 -0.31829798
91.921494 -3.0501056 -0.30316961
104.51884 -3.0780623 -0.076242626
28.218788 -2.5627995 -0.20047677
29.500526 -2.57882 -0.22187126
31.127525 -2.6102643 -0.24896267
32.086941 -2.8030064 -0.26406693
91.41687 -2.8446879 -0.31334189
91.593323 -2.6243539 -0.31132758
94.230919 -2.9163008 -0.2623657
104.66556 -2.8849244 -0.074507922
27.426628 -2.4924977 -0.18753117
91.723709 -2.4039488 -0.31011099
93.758324 -2.3507648 -0.2737239
98.069382 -2.1069698 -0.19712278
26.4398 -1.6419617 -0.17473584
26.500706 -1.5064145 -0.17632455
97.98291 -1.7989072 -0.20006537
98.090218 -1.9304961 -0.19754398
26.461828 -1.2482015 -0.17672412
26.355373 -0.92361158 -0.17621961
58.998268 3.2219131 -0.09790504
59.186378 3.2812178 -0.29434586
58.718323 3.748085 -0.38027838
59.202526 3.78706 -0.26178437
59.67556 3.8166461 -0.25030836
60.004555 3.9552934 -0.34813941
94.173721 3.7765326 -0.2851541
58.912136 4.3901825 -0.25150752
59.334782 4.1127625 -0.29446375
59.75304 4.1763821 -0.28451058
60.184097 4.2301216 -0.34485099
64.212631 4.2688947 -0.14885832
66.726601 4.1232634 -0.24377267
86.688873 4.0895319 -0.41970673
93.335297 4.4549556 -0.30095398
94.253174 4.2623034 -0.28429252
20.480381 4.6210494 -0.092407167
20.885311 4.7351604 -0.09935993
21.119419 4.86408 -0.1034686
32.795753 4.554368 -0.29804307
60.998112 4.9120703 -0.15330547
61.042553 4.8704715 -0.28964043
64.369545 4.9402061 -0.31384572
65.556046 4.8568659 -0.10194452
66.643402 4.8375144 -0.2156339
86.985878 4.9611311 -0.41453299
87.290634 4.8131247 -0.40912622
88.302711 4.7462325 -0.39110309
88.867538 4.5801134 -0.38098517
93.451721 4.5749512 -0.29896587
93.841064 4.8417225 -0.292184
94.193375 4.8937321 -0.285914
99.052658 4.8770719 -0.19875908
59.385704 5.3576312 -0.47382846
59.728172 5.4027734 -0.48436928
60.170788 5.4291234 -0.49836445
64.363594 5.0262051 -0.21373047
66.679787 5.2037573 -0.083305947
84.780319 5.382863 -0.45333409
85.233871 5.261713 -0.44543216
86.778877 5.3290358 -0.41808271
87.016945 5.0499353 -0.41396424
87.572456 5.2476363 -0.40405858
93.349236 5.2853746 -0.30120331
93.817703 5.0486894 -0.29273272
21.48666 5.8857656 -0.11088502
54.987347 5.8460135 -0.27863026
59.826218 5.6322808 -0.47944027
60.200939 5.5998163 -0.49288177
62.85331 5.9421844 -0.17445655
63.023067 5.9530869 -0.14174306
64.453972 5.8375068 -0.26791391
64.761322 5.8492785 -0.28747731
65.119308 5.8307495 -0.26401755
66.230453 5.9179702 -0.32522392
66.672165 5.7001848 -0.22954851
84.790253 5.8038969 -0.45271662
85.202766 5.8743825 -0.44542086
21.553217 6.3248978 -0.11241057
59.824799 6.1092396 -0.46165174
60.473282 6.2615399 -0.47502434
62.708515 6.0758371 -0.11811652
65.935776 6.1069288 -0.31830001
66.657402 6.0675783 -0.29975453
77.722908 6.1558495 -0.062572479
83.006851 6.4734268 -0.48267213
84.287956 6.1237717 -0.46108398
84.661926 6.0769248 -0.45462969
85.000137 6.0151696 -0.44880143
21.578897 6.7855306 -0.11319456
64.74131 6.7340093 -0.062394399
65.384384 6.6989384 -0.056369841
65.946922 6.9136448 -0.30947191
66.168129 6.9650865 -0.27033323
66.890106 6.9146199 -0.22609922
67.004211 6.9831963 -0.21692336
67.702484 6.9859624 -0.19033724
82.960236 6.60286 -0.48319298
83.651764 6.98177 -0.47043869
84.262062 6.6865492 -0.46055216
84.622368 6.6827264 -0.45432225
21.254696 7.2182207 -0.10807377
32.739029 7.395113 -0.29775757
33.424004 7.4699984 -0.30894059
33.53228 7.3324571 -0.31079715
37.96225 7.0164738 -0.38343719
65.990982 7.0137224 -0.24347132
66.14743 7.0093579 -0.24006656
66.958374 7.0020881 -0.21701425
83.581978 7.1842818 -0.47114232
85.318497 7.3823991 -0.44086331
86.178894 7.4132805 -0.42596081
20.775394 7.6804605 -0.10033295
30.716007 7.596848 -0.26445842
33.224987 7.7442322 -0.30549261
59.22821 7.9728875 -0.052216768
65.9599 7.6350236 -0.34782785
66.04525 7.6902404 -0.31755725
67.095352 7.6982517 -0.15818185
85.341843 7.9658756 -0.43904668
85.630463 7.7344809 -0.43468785
88.902405 7.6707773 -0.37827754
89.182678 7.9901066 -0.3728537
22.24604 8.1864634 -0.12479383
58.770947 8.355751 -0.0035538871
59.35144 8.3297729 -0.03279959
59.562111 8.4389324 -0.034518629
66.082809 8.444294 -0.2678079
86.19014 8.4425259 -0.42329848
22.344734 8.9275398 -0.12637359
22.860355 8.9736156 -0.13484889
30.705372 8.7097178 -0.26354825
59.121128 8.7452354 -0.33610544
66.037918 8.5052242 -0.12043542
83.444946 8.5995522 -0.46913293
83.911926 8.9611874 -0.46002689
84.880096 8.6225548 -0.44496998
85.070663 8.8669891 -0.44096565
29.562382 9.2493105 -0.24439633
30.228519 9.2066221 -0.25527865
30.901535 9.2819204 -0.2661216
36.936028 9.2359467 -0.3634277
37.02433 9.3073511 -0.36468533
40.714046 9.494483 -0.42254338
41.68224 9.3489876 -0.43811572
59.158848 9.4383993 -0.30810341
59.889671 9.3008766 -0.33152324
60.263981 9.4369278 -0.3336097
60.590065 9.2854986 -0.010466099
66.09314 9.1705122 -0.24282043
83.860039 9.0200319 -0.4606705
85.4879 9.2093582 -0.43280616
86.45079 9.3372116 -0.41619873
30.958435 9.7041683 -0.26648152
40.753296 9.5737743 -0.42291582
41.538994 9.7746162 -0.43449628
59.260757 9.5904436 -0.30418873
59.823639 9.7386723 -0.31079936
60.029415 9.8352528 -0.31098151
66.13131 9.8916559 -0.17294867
85.082947 9.9053297 -0.43697089
94.867081 9.6000242 -0.27133304
32.961876 10.030166 -0.29822904
33.014679 10.133482 -0.29888034
33.550255 10.090769 -0.30754268
37.232552 10.134121 -0.36600232
41.146858 10.172619 -0.42705479
54.678802 10.237518 -0.13746756
59.129333 10.071096 -0.28040144
88.138367 10.209459 -0.38493305
29.022562 10.902749 -0.23336771
36.753155 10.574682 -0.35725445
66.160995 10.605896 -0.30798265
80.97113 10.654031 -0.49939507
81.120758 10.784388 -0.49630243
83.749474 10.556003 -0.45589536
84.127701 10.625536 -0.4494563
86.16523 10.863498 -0.41520432
87.263969 10.657705 -0.3979128
29.051037 11.095315 -0.23348725
56.477211 11.412739 -0.15332532
56.608791 11.439178 -0.15615304
66.254189 11.425497 -0.26746422
83.743774 11.258601 -0.45246044
87.479576 11.193484 -0.39222234
25.927113 11.604522 -0.18234837
56.900646 11.531517 -0.16087168
84.282646 11.922543 -0.44038236
87.966347 11.926039 -0.381134
91.3834 11.817088 -0.32500687
84.435883 12.109105 -0.43694669
90.487564 12.47835 -0.33740193
90.891846 12.439862 -0.33087397
55.098164 12.531335 -0.067831397
74.659958 12.695913 -0.0094923079
80.869736 12.922537 -0.48600221
85.330475 12.874402 -0.4186348
89.805443 12.709106 -0.34764257
90.062332 12.501605 -0.3443127
58.90321 13.333158 -0.13142908
59.273186 13.327572 -0.13860518
59.645607 13.010628 -0.15983963
60.355637 13.415151 -0.1523958
80.248611 13.306473 -0.49208292
85.267151 13.080328 -0.41845533
86.874229 13.109278 -0.39301458
87.350479 13.05019 -0.38574505
89.797188 13.145049 -0.34585491
29.084885 13.829679 -0.22749186
58.889282 13.625582 -0.1179446
59.343704 13.554784 -0.12956464
59.831814 13.63103 -0.13431418
60.808178 13.549763 -0.15219438
85.426033 13.684803 -0.41243142
89.845726 13.846661 -0.34177691
24.376728 14.048533 -0.15262014
24.730112 14.159443 -0.1579549
31.49791 14.104354 -0.26418495
36.763645 14.414164 -0.34303668
37.162643 14.390651 -0.34909165
82.69371 14.046019 -0.45124286
25.287209 14.957605 -0.16462696
25.752399 14.945243 -0.17196721
28.429516 14.80056 -0.21424705
28.820946 14.787453 -0.2203756
59.480698 14.840608 -0.072531164
59.8461 14.647677 -0.087160498
81.184723 14.858788 -0.46665362
89.87262 14.72822 -0.33687881
17.223652 15.407251 -0.0356251
19.233948 15.279676 -0.067986906
19.877911 15.239335 -0.078332663
20.422508 15.22794 -0.087021291
89.914223 15.045882 -0.33453467
85.851265 15.91985 -0.3915059
82.137611 16.555656 -0.4395197
86.600395 17.422346 -0.36980426
76.135284 17.91777 -0.49900985
75.944336 18.212496 -0.49765953
75.20121 18.653784 -0.49994451
75.851868 18.783373 -0.49206579
76.123627 18.581364 -0.49164718
76.729568 18.516338 -0.48609012
90.100067 18.564278 -0.31018919
75.317566 19.142988 -0.49308425
75.694672 19.177177 -0.48905566
75.364258 19.754328 -0.48540938
90.945076 21.626913 -0.27577007
79.902023 22.629028 -0.40689027
48.663612 23.048557 -0.42244345
62.871342 23.987362 -0.48416317
49.221672 24.32206 -0.41303435
60.31982 24.293505 -0.47650003
60.541252 24.491064 -0.47420824
62.85154 24.280533 -0.47999865
63.197243 24.36154 -0.47894076
91.105865 24.484968 -0.25061864
49.328651 24.720865 -0.40933457
57.674129 24.694374 -0.46279466
59.972683 24.777803 -0.46894395
60.17453 24.880199 -0.46797818
63.420284 24.666023 -0.47463968
63.635216 24.74749 -0.47345781
49.866196 25.474606 -0.40493888
82.529785 25.415075 -0.3480179
49.148067 25.802862 -0.39518771
49.202682 26.117199 -0.39194018
49.720589 26.469126 -0.39191493
62.181759 26.388628 -0.44976413
49.267822 26.83374 -0.38396743
49.500183 26.648134 -0.3880313
60.635517 26.928028 -0.44022501
49.831738 27.128172 -0.38484263
59.717327 27.317194 -0.43293539
60.762695 27.034912 -0.43893784
49.84449 27.796974 -0.37681806
50.181198 27.944866 -0.37750193
50.583824 27.995697 -0.37978235
51.939117 27.875702 -0.39052927
52.220699 27.87418 -0.39235938
52.624649 27.868874 -0.39496541
49.614647 28.457813 -0.3670384
50.660332 28.193964 -0.37786514
51.315807 28.192865 -0.38239726
50.807507 28.649466 -0.37321401
50.702499 29.257034 -0.36489129
50.773132 29.621019 -0.3607944
52.847286 29.708149 -0.3725391
50.582085 30.321207 -0.35069901
50.618744 30.51815 -0.34845394
52.643372 32.69976 -0.3322618
52.659405 33.011425 -0.32823914
52.587029 33.579849 -0.32036155
52.497547 34.61179 -0.30625391
61.681534 34.758171 -0.33099276
57.773754 36.522961 -0.30000949
52.27702 37.309017 -0.26930547
40.717567 45.83506 -0.088541687
40.773415 48.998928 -0.049862325
66.17112 -63.042515 0.49752134
66.387466 -62.879623 0.49440759
66.600616 -62.96019 0.49634236
66.681068 -59.187115 0.41835779
66.880394 -58.978592 0.41431683
60.174438 -56.793392 0.36632234
67.996895 -56.951534 0.3741619
68.285545 -56.693474 0.36935401
67.660812 -56.457458 0.36336827
67.342003 -55.99704 0.35332328
58.741501 -55.217991 0.33500594
68.473427 -55.262444 0.340141
68.648987 -55.132599 0.33780688
60.142941 -54.541523 0.31981248
60.506123 -54.872265 0.3264274
69.680664 -54.740288 0.33195698
59.332649 -54.103096 0.31140864
59.780918 -54.286865 0.31481907
58.520458 -53.60722 0.30204874
59.078232 -53.752106 0.30441397
53.743332 -53.356369 0.30628726
55.287704 -53.399601 0.30334705
55.765896 -53.424545 0.3028276
56.725929 -53.430199 0.30108875
68.748795 -52.724991 0.28829169
68.981628 -52.191051 0.27776831
69.160843 -52.126522 0.27683562
55.712337 -51.98217 0.27338797
71.324631 -51.771297 0.27518409
71.616722 -51.866226 0.27801901
54.54248 -51.134693 0.2588498
55.475086 -51.168148 0.25725359
70.16745 -51.198135 0.26015037
70.527725 -51.155743 0.26024371
56.965263 -49.80851 0.22628158
74.489799 -49.817696 0.24642652
71.625267 -48.804142 0.21518129
71.393394 -48.417931 0.20651573
75.415497 -48.247192 0.21852499
75.616135 -48.340443 0.2213307
69.298096 -47.433205 0.18036088
69.685379 -47.010391 0.17263687
74.011177 -46.621384 0.17938381
70.240631 -46.173935 0.15693825
74.278481 -46.269287 0.17336029
74.686264 -46.181561 0.17335993
85.397659 -46.393555 0.24389404
73.284843 -45.531654 0.15421987
85.40686 -45.767765 0.23198593
71.332184 -45.204029 0.14038184
71.554054 -45.059891 0.13817048
72.914055 -45.330135 0.14864892
73.198196 -45.087841 0.14483178
85.429131 -45.183002 0.2209875
71.758133 -44.815929 0.13387766
72.272865 -44.969418 0.13886115
72.591125 -44.942696 0.13950202
51.701794 -44.396404 0.13178527
59.344612 -43.676098 0.096371233
55.452854 -42.252808 0.075350344
53.566208 -41.3298 0.062863886
52.516563 -40.936356 0.059060097
55.762878 -39.692474 0.022366673
52.921345 -38.988979 0.018358588
53.738926 -38.688038 0.0090152426
54.70438 -38.511127 0.0018690228
55.061455 -38.644131 0.0033220649
85.699997 -38.751656 0.10208493
29.475521 -38.153961 0.19152218
53.510361 -38.444759 0.0050286651
85.721077 -38.315475 0.094187021
89.004776 -38.134594 0.12237376
85.746269 -37.722069 0.083441675
89.087547 -37.821777 0.11760461
85.770844 -37.149467 0.073112607
17.607544 -36.746605 0.31384915
85.791161 -36.731815 0.065623581
88.848213 -36.738087 0.095809579
85.812355 -36.323685 0.058340609
85.834129 -35.778999 0.048589289
85.869026 -35.268333 0.03962028
85.923454 -34.667923 0.029254854
86.212143 -34.44582 0.028089315
18.229954 -32.70797 0.24986893
1.2871284 -22.790642 0.38830405
1.2355766 -22.304932 0.38463145
-1.0244064 -21.725246 0.41518754
0.70167542 -21.872309 0.38912922
69.828316 -21.402273 0.43658996
70.036575 -21.437109 0.44133776
72.805176 -21.492954 0.49102741
73.094025 -21.440779 0.49407852
72.672005 -20.712793 0.4477908
73.299133 -20.973911 0.47416419
73.936592 -20.74481 0.47627044
74.03698 -20.832336 0.48296982
60.4809 -20.47196 0.36025852
60.634079 -20.435587 0.35695887
72.364334 -20.14728 0.41225833
73.945656 -19.177336 0.39713827
74.339043 -19.278183 0.4117032
57.26458 -18.227112 0.28212082
59.176456 -18.089579 0.24500924
57.811535 -17.630821 0.24127974
58.642673 -17.656303 0.22933549
69.33519 -17.729408 0.23162204
70.525253 -17.762932 0.25269687
103.92112 -17.530073 0.024983108
104.23898 -17.506184 0.029996097
12.771511 -17.33672 0.1571233
59.182629 -17.111706 0.19242632
69.373528 -17.165154 0.20191565
106.18456 -17.162045 0.058887124
16.268009 -16.601023 0.095122516
59.085571 -16.653811 0.16931175
69.382042 -16.006693 0.14011133
72.223633 -16.265158 0.20982948
57.994888 -15.524165 0.1277777
69.35054 -15.797143 0.12846357
69.808907 -15.956474 0.14461821
74.687355 -15.634269 0.2435759
57.80415 -15.265771 0.11802213
58.75177 -15.120255 0.093244947
69.431564 -15.198251 0.097946703
73.693855 -15.274897 0.1982252
74.809906 -15.277366 0.23040372
58.398827 -14.809175 0.083109081
58.528725 -14.869383 0.083911777
69.387421 -14.884673 0.080569267
69.745476 -14.882016 0.086791731
72.246613 -14.786142 0.13619977
72.611046 -14.702067 0.14132409
73.492363 -14.880234 0.17362696
75.090797 -14.876182 0.22031187
75.965004 -14.511288 0.23168832
76.206627 -14.600441 0.24364752
60.943966 -14.247765 0.015716702
61.071182 -14.269211 0.015519202
72.18541 -14.354064 0.11324455
76.312531 -14.461937 0.24106675
52.516361 -13.750497 0.18537623
53.40773 -13.642971 0.15199876
73.958702 -13.68702 0.13065255
74.019745 -13.570484 0.12710261
83.323891 -13.552362 0.47749341
12.197254 -13.458449 0.13394481
52.453968 -13.276604 0.16694221
53.344318 -13.296944 0.13862048
58.16721 -13.313261 0.010325755
83.38649 -13.292779 0.47135067
53.47261 -12.874128 0.11583453
56.222813 -12.72313 0.027195036
57.832817 -12.971054 4.0769577e-05
58.067097 -12.59018 0.48173395
73.840332 -12.808991 0.086513899
120.62701 -12.559107 0.26924485
57.835037 -12.249302 0.46272507
58.02351 -12.388603 0.46681464
71.664726 -12.447784 0.0060658455
83.945534 -12.236898 0.461366
84.034142 -12.103024 0.4611268
120.83069 -12.294739 0.27095872
17.56311 -11.514093 0.03186363
83.995102 -11.882775 0.45249993
84.157524 -11.64874 0.45268014
114.79993 -11.588468 0.15944642
119.86147 -11.771152 0.25013357
17.696236 -11.307016 0.028133869
57.294991 -11.165693 0.39879665
57.677219 -11.379499 0.39909703
71.907051 -11.215068 0.44227558
72.264061 -11.298363 0.46625811
72.59182 -11.067555 0.465628
73.293167 -11.389826 0.0047159791
79.354233 -11.091139 0.22305089
115.1492 -11.484049 0.16484594
12.417181 -10.723179 0.11028275
13.217396 -10.555569 0.095974922
52.73634 -10.998786 0.062262714
53.181091 -10.674156 0.032968819
56.45715 -10.6989 0.40244013
56.582489 -10.643073 0.3920545
57.12236 -10.976891 0.39186025
70.837761 -10.637364 0.3472991
71.248917 -10.646081 0.36703482
72.83815 -10.756234 0.4557786
79.381622 -10.945849 0.21914162
79.56974 -10.921126 0.22629958
116.77048 -10.699794 0.18797809
117.05577 -10.76024 0.19345403
53.247658 -10.051723 0.005708158
55.850609 -10.165771 0.39473838
56.713959 -10.175381 0.35052556
70.9897 -10.471841 0.34130496
71.197502 -10.460419 0.35023323
116.27094 -10.215172 0.17581868
15.309372 -9.6595497 0.055448771
55.752151 -9.9839716 0.38711125
56.239704 -9.5331173 0.32843417
56.764469 -9.7366972 0.31553826
12.284492 -9.4337521 0.10380358
15.261044 -9.4021053 0.054510355
46.045135 -9.1504202 0.28014022
47.557587 -9.2701788 0.21513814
48.042667 -9.1028023 0.18852764
51.907124 -9.2778721 0.029021492
56.160851 -9.4010668 0.32337835
56.725861 -9.4025984 0.29308566
15.040466 -8.7243099 0.053699493
45.992039 -8.9353304 0.27668482
47.363495 -8.7614832 0.20917183
47.5233 -8.5613918 0.19627202
51.815819 -8.7981787 0.015963027
52.05957 -8.8848047 0.0088948607
55.854542 -8.6360607 0.28796571
56.331982 -8.6588411 0.26196697
56.529514 -8.5163851 0.24077088
61.413734 -8.5282574 0.1975783
61.520203 -8.5655451 0.3639769
46.012337 -8.2080812 0.2565375
46.830673 -8.394721 0.22344214
47.19603 -8.0943613 0.19852012
47.778118 -8.1916189 0.17436792
51.682518 -8.2983332 0.0046513081
53.469353 -8.230917 0.41419476
54.387135 -8.2029104 0.35150462
54.638802 -8.0427628 0.32534689
55.373951 -8.0831099 0.28091934
55.863102 -8.1708918 0.25652593
56.24028 -8.3776016 0.24795845
61.412312 -8.4870481 0.16928612
74.387146 -8.3077211 0.38551426
74.805626 -8.3393869 0.41560611
75.267052 -8.4036398 0.45091572
43.872032 -7.9473248 0.35145134
47.157726 -7.86519 0.1942609
47.554398 -7.7323484 0.17234629
49.431931 -7.806437 0.088275135
49.609077 -7.8497825 0.081558689
50.860741 -7.5748401 0.017470896
51.053329 -7.6176453 0.010249704
53.786652 -7.7178431 0.36315924
54.409393 -7.7356334 0.32205057
54.728069 -7.8524709 0.30799308
55.194561 -7.9247012 0.28228617
55.785912 -7.9514961 0.24689254
45.775074 -7.0496807 0.23963714
46.38562 -6.6942668 0.20223743
47.443825 -6.5503616 0.14822805
48.892159 -6.7501316 0.08454439
49.041866 -6.552844 0.072537035
47.29834 -6.0273447 0.1433976
47.584473 -6.0847645 0.13085853
48.92453 -6.178637 0.068924017
49.032227 -6.3545508 0.068082631
46.84811 -5.6106257 0.15647684
47.178768 -5.7987475 0.1442868
60.837543 -4.7973075 0.29945993
43.96933 -4.1511326 0.27419659
16.302696 -3.2133503 0.0022339225
112.52917 -3.2074664 0.068870544
112.98271 -2.6180837 0.074434638
15.256287 -0.62931132 0.0092116296
15.10347 -0.37936017 0.010883272
59.033997 3.2104125 0.19415069
87.235977 3.399765 0.399836
112.75581 3.3859067 0.050706685
128.864 3.465054 0.34163505
87.476639 3.9678853 0.41478509
88.822685 3.9106915 0.48519826
112.86978 3.9039838 0.051677346
127.47101 3.6206193 0.31608039
127.64318 3.8511229 0.31865221
64.227242 4.28932 0.13216828
66.727257 4.1591058 0.038736708
85.106232 4.4673247 0.2936728
87.25827 4.0971704 0.40396643
88.523956 4.0412226 0.4700672
111.86612 4.3334522 0.032741785
112.94487 4.1613832 0.052528679
54.453323 4.9211845 0.10542677
54.835476 4.7701602 0.43699542
55.762962 4.852376 0.33944178
60.993736 4.9883389 0.054263175
61.045879 4.8856864 0.23546672
64.40416 4.8190165 0.17655383
64.538643 4.9920125 0.39128852
65.328773 4.8897457 0.39585045
65.750824 4.8708663 0.4164356
66.263474 4.915257 0.40081519
66.599556 4.8981042 0.22365898
84.907883 4.8036695 0.28578702
88.142311 4.7115479 0.45361522
111.92932 4.6737676 0.033280849
113.14395 4.9626427 0.05469197
127.70892 4.74369 0.31788486
7.3932953 5.4742646 0.12525338
54.45369 5.1944175 0.49991685
54.98642 5.0181804 0.43258494
55.292618 5.4013944 0.057774663
64.457008 5.0584278 0.2938948
64.728333 5.156064 0.36801562
65.095474 5.0854735 0.43361583
65.853691 5.0385103 0.24903703
66.184685 5.0104985 0.31376439
66.652489 5.2532315 0.15781394
84.398254 5.472836 0.26513952
84.791512 5.2668152 0.28357747
85.215248 5.3169365 0.30587706
88.342087 5.2261558 0.46735162
112.25108 5.2069306 0.038221855
0.67630005 5.8355784 0.23711675
7.4072685 5.6731572 0.12468511
42.167244 5.8919301 0.34291011
46.478943 5.9610567 0.12867612
46.700684 5.9265051 0.11731219
47.002289 5.8677902 0.10168201
62.878403 5.9618912 0.30125859
