# .PCD v0.7 - Point Cloud Data file format
VERSION 0.7
FIELDS x y z
SIZE 4 4 4
TYPE F F F
COUNT 1 1 1
WIDTH 1518
HEIGHT 1
VIEWPOINT 0 0 0 1 0 0 0
POINTS 1518
DATA ascii
66.810989 6.2409625 -1.2071873
77.707802 6.2917013 -1.2779698
86.873329 6.2904062 -1.4502327
87.080742 6.0745153 -1.4667387
89.078934 6.1305642 -1.4999926
66.845428 6.777739 -1.1949798
85.266296 6.881773 -1.3856561
85.586617 6.6402903 -1.4059699
86.344193 6.9053493 -1.4037611
89.526855 6.6791735 -1.4750633
66.872406 7.2615256 -1.2521037
67.493134 7.2998772 -1.4657202
67.651878 7.2642865 -1.365168
90.082672 7.0273376 -1.4636575
66.906158 7.7529564 -1.2369527
81.838791 7.5777392 -1.2813232
83.736061 7.9411697 -1.2926142
89.901459 7.7624617 -1.4141496
91.497894 7.8377333 -1.4378285
66.938583 8.2556305 -1.2579014
79.139343 8.4201078 -1.1798875
86.542419 8.4504766 -1.3097999
87.136482 8.0697031 -1.3451059
89.376373 8.3386908 -1.3675851
91.569977 8.2210026 -1.414336
66.973503 8.7380962 -1.2214878
67.002747 8.9539766 -1.0859997
83.567993 8.8921862 -1.2276133
86.554062 8.628581 -1.2982849
91.323494 8.6078196 -1.3845888
66.990753 9.1533499 -1.3241727
67.017082 9.2957954 -1.1829953
80.694153 9.3119612 -1.1478626
81.074738 9.0863609 -1.1701035
85.291931 9.0266953 -1.249295
90.737747 9.2444162 -1.3316443
67.042839 9.7410803 -1.2226307
82.979187 9.9850159 -1.1416807
85.976746 9.9101305 -1.2008591
88.740623 9.8385401 -1.2553573
90.783913 9.6567812 -1.3043984
91.445175 9.5372553 -1.3243791
67.068779 10.239883 -1.2384118
79.316673 10.4102 -1.0439115
80.691231 10.094753 -1.0923905
82.976685 10.033201 -1.1382043
86.133148 10.426298 -1.1671295
88.894592 10.359226 -1.2216818
90.071808 10.313617 -1.2460556
90.903534 10.115694 -1.2748204
67.093239 10.73949 -1.2627919
79.331345 10.592001 -1.0304716
83.877907 10.788759 -1.0998101
84.309982 10.903698 -1.0992584
87.4925 10.786605 -1.1658421
87.628273 10.704588 -1.1742125
90.393883 10.594628 -1.2320077
67.123856 11.240752 -1.2430528
80.380775 11.067472 -1.2152705
87.989906 11.042143 -1.1563611
88.993881 11.233364 -1.1607238
91.211533 11.286934 -1.1971815
67.146126 11.736297 -1.275115
80.486633 11.645281 -1.3800728
81.980057 11.843873 -1.4457662
90.058334 11.922544 -1.1294923
90.571045 11.889382 -1.1413863
67.180237 12.218939 -1.2333819
75.837349 12.42523 -1.0723172
76.482117 12.335047 -1.1144143
76.662979 12.297045 -1.1270914
77.368576 12.322632 -1.4780009
77.82505 12.28547 -1.2155334
78.068893 12.269499 -1.2054825
79.381653 12.342283 -1.2710681
80.808563 12.28009 -1.3521928
84.369675 12.158716 -1.0051062
85.583717 12.139006 -1.0297234
90.13842 12.045048 -1.1218541
97.239876 12.431783 -1.223627
67.203857 12.756258 -1.2758251
75.810196 12.764378 -1.0453236
76.71627 12.632071 -1.105181
77.791985 12.644031 -1.163047
83.344009 12.807079 -1.4504571
87.686966 12.643053 -1.0306793
89.796997 12.796912 -1.0586964
90.143211 12.71437 -1.0715039
90.630661 12.541481 -1.0937243
66.877083 13.061242 -1.48229
67.227303 13.218356 -1.2900752
74.987274 13.436424 -1.2107079
75.265518 13.366106 -1.2380638
75.732628 13.177703 -1.1623684
78.546051 13.102322 -1.1703765
80.982979 13.073394 -1.3045433
81.133232 13.058117 -1.3137482
89.808273 13.301006 -1.02002
67.261322 13.734988 -1.2648718
75.279564 13.78526 -1.3946401
75.655807 13.69048 -1.2529345
76.253296 13.57193 -1.0087583
77.327423 13.809702 -1.3880312
77.587753 13.948923 -1.4022851
78.091995 13.967137 -1.4443225
84.007683 13.846096 -1.4116983
67.282829 14.254504 -1.293206
74.991035 14.187008 -1.4506943
75.1325 14.146281 -1.4674021
75.769638 14.07053 -1.241412
77.261955 14.00021 -1.3716024
78.747391 14.28682 -1.482026
67.31665 14.73678 -1.2173488
75.470764 14.84456 -1.2522739
75.684586 14.938167 -1.3117807
76.275879 14.989936 -1.2332716
85.757683 14.517397 -1.4575185
67.335686 15.132427 -1.2658591
75.432083 15.221928 -1.1506028
75.692795 15.260012 -1.1701295
76.264542 15.10496 -1.2260529
76.691116 15.173408 -1.2579467
75.46154 15.502302 -1.1380141
75.677856 15.710666 -1.1446927
82.259033 16.681316 -1.107286
79.155075 17.150188 -1.3557144
75.81813 17.90015 -1.0406719
75.274956 18.363213 -1.3738446
75.787788 18.338865 -1.0154349
76.069542 18.424877 -1.0336254
76.813644 18.169321 -1.1072627
77.353821 18.283062 -1.1453373
90.05735 18.809795 -1.3769766
82.123993 19.927956 -1.4517715
75.772156 20.37488 -1.3796544
76.865265 20.251091 -1.4895219
75.682709 20.778797 -1.3628422
80.580254 21.475502 -1.2401814
80.523933 21.501648 -1.2341673
74.114418 22.699352 -1.1840327
76.965591 22.69075 -1.4470338
77.027733 22.687889 -1.4530702
79.89566 22.967638 -1.1056645
79.795204 23.139683 -1.0885537
82.381851 23.90242 -1.2589015
82.27137 24.136038 -1.2374816
75.960701 24.628044 -1.3159925
76.135117 24.580513 -1.3327887
77.227859 24.960091 -1.4270277
80.845879 24.702784 -1.0918801
81.419205 24.703934 -1.1381941
81.885315 24.614134 -1.1807575
76.900223 25.004093 -1.395579
77.117332 25.02804 -1.4153728
82.487473 25.487104 -1.1838157
82.800247 25.184172 -1.2252519
64.454773 25.939699 -1.0735625
64.581787 25.933174 -1.0794921
77.814453 25.853418 -1.4649292
78.147392 25.993607 -1.4936359
82.400627 25.55698 -1.1730869
83.131363 25.582661 -1.2312218
84.097511 25.762711 -1.3006895
84.711006 25.979774 -1.3394774
64.775078 26.095495 -1.0918511
77.596825 26.110922 -1.4395832
78.102463 26.128433 -1.4867396
82.633286 26.038973 -1.166677
84.731644 26.363432 -1.3207529
76.60054 26.730251 -1.3366117
61.140976 45.979454 -1.2857904
61.968719 46.551025 -1.3408356
81.812935 64.767654 -1.178092
81.482376 65.078735 -1.1463957
81.073135 66.01664 -1.099149
84.819832 -56.277145 -0.54092121
85.055862 -56.265244 -0.55289459
52.271606 -53.294617 -0.525666
53.314274 -53.31612 -0.61342204
53.761299 -53.33828 -0.65098596
54.187286 -53.395412 -0.68717909
55.325966 -53.387104 -0.78076935
55.651375 -53.450783 -0.80831861
56.332809 -53.374725 -0.86260104
56.554913 -53.387634 -0.8807745
57.437553 -53.458839 -0.95288444
84.842964 -52.661697 -0.60965395
85.133682 -52.512333 -0.6265204
55.331875 -51.873245 -0.75852585
85.008606 -49.14283 -0.68221331
58.521984 -48.810989 -0.97175741
85.133507 -48.813889 -0.69406271
88.444672 -46.45005 -0.88144445
88.478928 -45.937752 -0.89121914
88.559662 -45.565254 -0.90057421
85.244751 -44.221199 -0.78090858
59.084743 -43.735283 -0.94257641
54.544346 -42.870461 -0.55458236
85.425331 -40.50975 -0.85260725
85.452988 -40.024315 -0.86194658
54.947609 -39.559937 -0.53656578
85.485146 -39.562019 -0.87103605
85.495651 -39.072647 -0.87960768
59.37244 -37.905487 -0.8797884
85.589432 -36.750435 -0.92137432
85.607338 -36.309883 -0.92915058
85.619637 -35.862251 -0.93676233
85.644737 -35.259674 -0.94726133
85.812767 -34.571144 -0.96457481
86.135124 -34.510506 -0.97799158
59.772362 -31.793715 -0.82103252
60.09063 -26.063303 -0.76004553
73.69001 -25.963743 -0.53873467
73.751831 -25.063925 -0.56083012
74.200058 -23.784147 -0.61283761
73.691307 -22.613028 -0.60737032
71.799347 -21.570135 -0.51467085
74.20079 -20.752047 -0.67395616
74.582642 -20.835064 -0.69338083
60.35553 -20.283821 -0.69173306
60.518745 -20.289333 -0.70579612
73.954781 -20.20117 -0.6712501
74.297729 -20.12426 -0.69186807
74.662811 -20.443918 -0.70548773
72.205627 -16.24555 -0.6504631
76.752045 -15.206375 -0.90621024
60.901165 -14.28091 -0.64077735
73.909561 -13.094428 -0.80910575
73.99794 -12.956314 -0.8163271
74.117325 -12.968379 -0.82220316
73.072739 -11.420547 -0.7975291
74.703377 -10.328581 -0.89942724
61.2397 -8.4450703 -0.56846976
112.40132 -4.8185682 -0.95740747
119.21531 -4.5114717 -0.85069942
124.85397 -4.57164 -0.77141953
113.1287 -4.0549059 -0.91629696
125.68137 -4.3547649 -0.74908543
111.29301 -3.9994259 -0.93891025
111.72968 -3.7281036 -0.92171204
104.27954 -3.1440821 -0.99635708
104.7269 -3.0994434 -0.98898768
106.59437 -3.2856653 -0.9722603
104.62708 -2.9297047 -0.98366618
66.738419 4.8250747 -0.70811105
85.771271 4.9297791 -0.91206014
66.740562 5.3365002 -0.7675516
85.647263 5.1950383 -0.90130413
86.45755 5.2725348 -0.88510597
66.764488 5.584003 -0.70233381
85.148819 5.7028666 -0.88409394
85.787697 5.8206162 -0.86804533
86.594368 5.8623457 -0.85300434
66.823662 6.3160095 -0.76884657
77.737755 6.2989154 -0.86367172
84.809708 6.4549632 -0.85042524
85.247147 6.1382875 -0.86018437
86.333237 6.1475019 -0.84215975
66.868126 6.7802453 -0.76470405
81.50106 6.9965482 -0.8751201
85.225296 6.76092 -0.82682061
85.511757 6.8167992 -0.81893831
89.592659 6.5873108 -0.76399088
66.901573 7.2599788 -0.77751136
81.472435 7.1155949 -0.86906499
81.63121 7.264637 -0.85801351
82.917343 7.2084198 -0.83993286
83.056244 7.3893318 -0.8272081
85.006973 7.28754 -0.80035269
90.060349 7.2692623 -0.7159723
66.937691 7.7676239 -0.7312026
83.210342 7.7344995 -0.80407852
83.501663 7.7699971 -0.79707193
66.96479 8.2441826 -0.76524198
67.001465 8.4454384 -0.57530171
79.091194 8.3303823 -0.83770269
82.901184 8.0683069 -0.78896266
85.678116 8.258666 -0.72932011
86.489449 8.345808 -0.70985365
66.988014 8.6622076 -0.8155688
67.013405 8.8260546 -0.69685507
80.844376 8.9650536 -0.76579964
83.528419 8.8287439 -0.72893327
84.605057 8.7035198 -0.71880627
85.250229 8.9824095 -0.68899035
85.644211 8.5348339 -0.712075
90.23204 8.5970421 -0.62916487
66.997147 9.0219622 -0.925264
67.03553 9.2609272 -0.75287396
80.709312 9.1557579 -0.75491446
90.960587 9.3874016 -0.56325006
67.067459 9.7414598 -0.76524341
81.913109 9.6500683 -0.69911885
82.840385 9.9334183 -0.66259652
85.963272 9.864459 -0.61485445
87.147896 9.6990309 -0.60658848
88.497231 9.7064524 -0.5830462
88.505585 9.8414345 -0.57328367
67.095856 10.23071 -0.75076962
79.47699 10.411557 -0.68110633
79.541901 10.308057 -0.68839312
80.461777 10.390178 -0.66696888
83.193237 10.087121 -0.64519644
87.664421 10.172255 -0.56358826
88.862671 10.336117 -0.53129673
90.99131 10.135777 -0.50983918
91.167885 10.070745 -0.51152027
67.124878 10.738428 -0.75734663
79.464584 10.567616 -0.66860205
79.647614 10.876946 -0.63996118
80.242332 10.926231 -0.6267063
81.304535 10.987715 -0.60506654
83.823257 10.710702 -0.58690667
84.20874 10.774356 -0.5755555
85.895309 10.732051 -0.55114555
86.069588 10.753153 -0.54660344
87.653687 10.880242 -0.5106374
67.152412 11.223164 -0.75356001
78.532516 11.453806 -0.60564458
79.445671 11.454092 -0.96548164
79.616051 11.26169 -0.66151619
83.80265 11.146523 -0.55253172
67.180275 11.739582 -0.77170837
76.42926 11.763626 -0.87764066
76.597649 11.838582 -0.8303706
78.50692 11.552073 -0.59697682
79.284813 11.954337 -0.5494101
79.633423 11.541376 -0.96218437
80.316872 11.565152 -0.84054524
80.743652 11.904897 -0.78624767
81.237511 11.732254 -0.7635603
81.863007 11.77579 -0.75937116
67.209099 12.243063 -0.75393134
75.91964 12.470792 -0.80261981
76.365639 12.432936 -0.78079593
76.701416 12.259399 -0.66268218
77.020744 12.434011 -0.83202839
78.200684 12.224274 -0.64916909
78.691055 12.254035 -0.52809906
79.309608 12.260077 -0.7095257
79.733887 12.046923 -0.53495455
80.276505 12.23485 -0.9186995
80.762337 12.136399 -0.65609246
84.486557 12.353539 -0.99210864
67.235199 12.727736 -0.76235694
75.025185 12.755994 -0.50252807
75.886452 12.798702 -0.77127528
76.171768 12.712785 -0.69878399
76.62014 12.613985 -0.54882884
78.536324 12.540799 -0.50161886
86.368851 12.92542 -0.98342466
67.261047 13.239865 -0.81182283
74.875137 13.172575 -0.70773894
75.276321 13.232769 -0.83191752
75.738823 13.211816 -0.77018142
76.065109 13.100011 -0.74752152
80.933136 13.07973 -0.86176538
81.068504 13.05971 -0.86631268
67.289459 13.732198 -0.79413253
74.49408 13.803006 -0.63238609
74.76152 13.714191 -0.89322716
75.238991 13.696934 -0.88023221
75.609863 13.679769 -0.92309093
76.964462 13.979858 -0.68750453
82.547997 13.813239 -0.83373994
83.854492 13.766916 -0.86505258
86.251129 13.527987 -0.93308258
89.842133 13.892436 -0.9743045
67.313179 14.22965 -0.79265755
74.76519 14.261102 -0.83118933
75.289558 14.248209 -0.66891706
75.579971 14.174761 -0.71319884
76.417915 14.419867 -0.95297432
77.054886 14.003271 -0.68769038
84.770859 14.324961 -0.83734906
85.409332 14.177103 -0.8629669
67.350105 14.713491 -0.66108322
74.420593 14.741411 -0.53165817
74.801773 14.650392 -0.55460864
75.219894 14.6785 -0.56584716
75.882828 14.541904 -0.60102063
76.488815 14.517161 -0.94948053
89.908897 14.788719 -0.90380317
67.351395 15.165092 -0.68646687
75.410316 15.474006 -0.81252241
75.55909 15.445514 -0.82347602
76.29454 15.481548 -0.5182761
86.359451 15.200968 -0.79676396
75.398064 15.671029 -0.79616964
75.762444 15.688952 -0.81607592
90.02121 17.241692 -0.70069683
75.364365 17.694983 -0.63195038
75.999855 17.986986 -0.64670831
75.220016 18.412409 -0.71571565
75.805733 18.180304 -0.68781286
76.201141 18.227339 -0.63944435
76.737434 18.34783 -0.66184372
77.254669 18.344234 -0.69285369
74.877975 18.783501 -0.51380247
75.20179 18.757153 -0.82890946
75.735229 18.76079 -0.75871295
76.717133 18.565548 -0.64318097
75.747665 19.566959 -0.50352716
75.16713 20.49715 -0.85569167
75.728981 20.322214 -0.90878701
75.420845 20.787386 -0.86086529
75.739983 20.782164 -0.886213
75.728607 21.117517 -0.86826795
75.225327 22.43816 -0.76232123
75.622322 22.422031 -0.79394913
74.140213 22.70499 -0.66559851
76.317993 22.877831 -0.82521755
76.60743 22.606236 -0.8617059
76.264999 23.145916 -0.80751359
76.416725 23.844875 -0.78404105
75.929298 24.327129 -0.72192752
76.256699 24.215567 -0.75291663
76.206726 25.364239 -0.69133186
83.121552 25.047705 -0.50517273
84.116501 25.848446 -0.50009584
77.182297 64.514992 -0.81167269
77.120216 65.485237 -0.79302859
76.815445 66.217018 -0.75902104
76.324059 67.098091 -0.70870757
76.623367 67.101013 -0.73168635
74.409813 71.053551 -0.50835013
76.76889 74.521202 -0.63820314
77.00042 74.518318 -0.65595317
50.015717 -53.11084 -0.33070564
72.257423 -45.183105 -0.04675293
51.765572 -42.428505 -0.30822086
52.220772 -42.219238 -0.34447646
52.461235 -40.949821 -0.34453988
53.769695 -39.216652 -0.42983675
54.067616 -39.416763 -0.4588182
54.180485 -32.060272 -0.34706831
54.085083 -31.884058 -0.33560967
71.953514 -30.543764 -0.33594251
73.444176 -30.423258 -0.43183351
73.577362 -30.324106 -0.44198942
72.700851 -29.649214 -0.40209031
73.209648 -29.503012 -0.43661761
53.843594 -29.108974 -0.2659601
54.555389 -29.045885 -0.32881284
53.696522 -28.916845 -0.24928308
54.379078 -28.721441 -0.30736959
71.918777 -28.232676 -0.38235927
55.291447 -27.889038 -0.37459165
72.130882 -27.590635 -0.40935969
71.486465 -27.316084 -0.37381315
71.603317 -27.28047 -0.38212967
71.941818 -26.791101 -0.41413975
72.75 -26.924576 -0.46201682
54.401184 -26.176399 -0.26441169
71.060478 -26.391275 -0.36551857
72.411674 -25.273741 -0.47550082
54.415497 -24.222673 -0.23031545
54.684586 -24.233294 -0.25521934
56.446877 -20.6415 -0.35134166
89.748299 -20.185133 -0.003418684
86.4674 -19.704023 -0.010910829
89.764809 -19.799301 -0.016221127
86.472702 -19.180195 -0.03091538
89.800499 -19.228819 -0.034781057
70.338959 -18.848495 -0.47740996
70.548195 -18.624496 -0.4960835
86.490105 -18.88678 -0.042071104
86.509758 -18.60733 -0.052596927
89.825363 -18.754318 -0.049882412
55.814514 -18.067436 -0.24468517
57.122623 -18.182878 -0.36850277
57.747421 -18.269051 -0.42724127
69.977242 -18.270405 -0.46533871
70.165878 -18.436295 -0.47455555
86.718193 -18.317966 -0.064123213
87.09021 -18.372242 -0.063421965
89.847412 -18.303503 -0.063908421
55.827763 -17.702248 -0.23886159
56.102669 -17.951754 -0.26949775
89.866417 -17.763239 -0.080358423
55.767277 -17.487185 -0.22896743
69.141022 -17.00141 -0.43441629
89.895164 -17.239574 -0.095820747
69.229187 -16.525618 -0.45075583
89.919128 -16.728823 -0.11049708
90.850677 -16.501907 -0.10911238
91.240623 -16.52894 -0.10456101
91.72699 -16.547457 -0.098886646
92.222443 -16.565432 -0.092672668
92.556252 -16.577616 -0.088245869
94.222656 -16.677776 -0.062326312
56.967087 -16.398233 -0.32072616
57.229443 -16.306028 -0.34345666
69.315697 -16.34145 -0.46074629
69.743713 -16.317888 -0.49088946
89.99514 -16.475224 -0.11715341
90.300423 -16.477606 -0.11464056
90.616043 -16.497379 -0.11139607
76.616516 -15.686525 -0.00024557114
92.132629 -15.782681 -0.11232257
75.795067 -15.025833 -0.0044019222
76.646729 -15.485088 -0.011545181
93.200714 -15.223976 -0.10850859
93.941902 -15.129969 -0.097639561
95.38385 -15.237568 -0.068410754
75.461258 -14.607157 -0.013383925
75.818192 -14.950624 -0.009123683
76.338814 -14.632194 -0.044249415
76.745239 -14.795323 -0.049759924
91.678444 -14.814893 -0.14049923
92.442841 -14.630346 -0.13285136
93.868256 -14.8948 -0.10330915
75.95549 -14.372104 -0.044017553
82.533493 -14.48278 -0.18365502
92.409012 -14.267654 -0.14070535
92.524094 -14.150633 -0.1410464
93.009171 -14.39197 -0.12801647
57.600868 -13.713129 -0.32843506
90.647156 -13.584974 -0.18250191
93.755722 -13.524311 -0.12891769
96.375153 -13.691913 -0.06803441
96.771248 -13.623651 -0.059067249
97.297287 -13.648544 -0.045588255
57.484119 -13.006193 -0.30331564
57.719116 -13.111404 -0.32777992
73.905045 -13.479727 -0.0078456402
74.256042 -13.091213 -0.044014812
90.852333 -13.492085 -0.18148112
57.596199 -12.978069 -0.31344175
73.884842 -12.817926 -0.042373896
74.053276 -12.87089 -0.046967268
91.96608 -12.926216 -0.173877
92.187576 -12.760485 -0.17260343
92.898438 -12.600044 -0.16107082
93.424927 -12.621569 -0.1496048
95.47673 -12.576187 -0.10247374
57.384335 -12.156464 -0.27647766
57.598179 -12.361335 -0.30121452
92.936325 -12.485752 -0.1620369
93.323563 -12.098478 -0.1592114
95.943741 -12.271883 -0.093622327
96.020409 -12.115019 -0.093026638
57.229229 -11.76253 -0.25328654
71.746643 -11.551273 -0.0050017834
72.128242 -11.522522 -0.027263999
73.278168 -11.541669 -0.083278418
92.967407 -11.935743 -0.1693871
95.864098 -11.699443 -0.10066938
56.953571 -11.352471 -0.21773604
57.126801 -11.380702 -0.23527229
72.682541 -11.041994 -0.081927776
73.185051 -11.432299 -0.084898949
79.425072 -11.078822 -0.28767395
79.607483 -11.096556 -0.28944635
95.971161 -11.345609 -0.10041809
96.070496 -11.056129 -0.099562764
98.121521 -11.218637 -0.03836751
98.802666 -11.311209 -0.017153978
72.765282 -10.915656 -0.092844129
95.973099 -10.629372 -0.10481644
96.199104 -10.6981 -0.097855806
96.727051 -10.683734 -0.082398534
97.275436 -10.070866 -0.067387342
98.928574 -10.079437 -0.013892174
99.108498 -10.041052 -0.0078508854
97.430817 -9.9525146 -0.062642336
97.844727 -9.8782225 -0.049386859
98.201958 -9.9033051 -0.037751675
98.999573 -9.6934338 -0.010927677
99.207542 -9.7286406 -0.0039037864
99.021545 -9.2884083 -0.0091280937
92.561386 -5.0698624 -0.21891809
97.933052 -5.1041903 -0.016026974
92.713562 -4.8319063 -0.21238375
93.185524 -4.6981859 -0.1944588
98.064583 -4.9860764 -0.0091292858
93.352547 -4.2671971 -0.18490469
93.459702 -3.8464699 -0.17704058
93.563782 -3.6868706 -0.17133689
97.335999 -3.6479802 -0.018251657
90.87384 -3.0830212 -0.26812124
91.785164 -3.377641 -0.23638821
92.387924 -3.3946285 -0.21366477
92.52446 -3.2607651 -0.20705462
94.383217 -3.0335588 -0.1303606
97.288391 -3.2274053 -0.012727022
92.592308 -2.8638134 -0.19987686
93.430603 -2.6923904 -0.16410017
97.133995 -2.8185873 -0.011484067
93.17485 -2.3170457 -0.16896188
66.830383 4.2209549 -0.25352535
86.996231 4.4824162 -0.27421939
87.44249 4.2093201 -0.26276559
87.514015 4.2926083 -0.25615656
66.748489 4.8800964 -0.20064726
86.836388 4.7125115 -0.27308118
87.061829 4.8866639 -0.25497305
66.772667 5.1496592 -0.17235464
86.705612 5.0578227 -0.26556575
87.08815 5.4258528 -0.23062575
66.727081 5.792573 -0.1925544
84.886299 5.7178059 -0.32796368
85.063736 5.7127256 -0.31936413
85.579063 5.7883797 -0.29013932
66.828018 6.3683748 -0.26780081
77.773491 6.3019447 -0.34165111
81.09906 6.4951277 -0.058262169
66.853775 6.8477879 -0.34842309
80.918327 6.8071346 -0.061039478
81.088287 6.8124661 -0.30947393
81.97908 6.6076684 -0.43420082
83.163231 6.8813486 -0.36056614
83.937233 6.7284536 -0.32870674
88.70961 6.8399696 -0.077388525
89.398293 6.9154425 -0.037605286
66.396141 7.0683537 -0.021514423
66.895256 7.2621746 -0.38193011
80.997787 7.0107498 -0.045550108
81.062462 7.0294399 -0.46047729
81.574402 7.1534257 -0.4279317
82.245346 7.1156001 -0.39557481
82.962257 7.4367585 -0.34142733
83.208435 7.2415309 -0.33937755
89.484772 7.25807 -0.013629198
66.340912 7.7998829 -0.031993032
66.924042 7.7176738 -0.35123381
83.242851 7.6158295 -0.316787
85.432968 7.8009253 -0.19221002
85.602325 7.7433228 -0.18680906
66.959976 8.3052988 -0.40578905
67.002686 8.4352789 -0.42664739
79.999214 8.3133841 -0.063341379
80.137177 8.3354788 -0.049847066
83.417221 8.1780519 -0.27418599
83.686928 8.1700592 -0.26056165
84.32151 8.4561062 -0.20937479
84.645782 8.371851 -0.19787323
66.437111 8.5498953 -0.047802508
66.923767 8.5731783 -0.41859123
67.017929 8.7712917 -0.43383658
79.680046 8.7593937 -0.062223881
80.280853 8.8501139 -0.26616862
80.704124 8.9505386 -0.36517978
83.529739 8.7150946 -0.23368412
84.496414 8.6123772 -0.1900214
84.65596 8.5573387 -0.18531144
85.151917 8.8849573 -0.13752747
66.396561 9.2454205 -0.027332276
66.923073 9.1867332 -0.20012788
67.048248 9.2351923 -0.40693662
79.716118 9.048151 -0.038911838
80.375137 9.2076931 -0.36410165
80.53698 9.2241802 -0.35437053
82.44519 9.0600882 -0.2666986
85.566452 9.3381796 -0.084254265
66.919258 9.7231359 -0.13978642
67.073631 9.7539148 -0.41166711
80.067528 9.9747286 -0.32127112
82.623672 9.8519049 -0.19909164
83.136391 9.725709 -0.18216823
84.761856 9.7102003 -0.09894228
85.054062 9.9748421 -0.063764095
66.781502 10.046103 -0.096421257
67.086906 10.203405 -0.34586391
80.042526 10.046246 -0.31672812
82.825874 10.082189 -0.17063044
85.301544 10.166128 -0.03617835
66.762703 10.799662 -0.090100408
67.114662 10.722383 -0.36041319
78.917381 10.979105 -0.2910116
80.123589 10.730557 -0.25404429
83.798256 10.637213 -0.075679004
84.2565 10.860001 -0.033659577
90.363007 10.905327 -0.46362281
67.158066 11.305092 -0.39505857
78.941742 11.05629 -0.28246602
79.165771 11.49416 -0.2287997
80.138596 11.265268 -0.20385396
80.795593 11.103409 -0.18675852
83.653427 11.229877 -0.032359801
94.406586 11.413815 -0.35764396
66.832489 11.534286 -0.085826628
67.154327 11.64575 -0.30405217
78.870125 11.701538 -0.22166473
79.224586 11.534718 -0.22192538
79.646011 11.763504 -0.17887586
80.793747 11.842808 -0.11629996
90.710419 11.535995 -0.40948689
96.721901 11.759111 -0.29283547
66.892899 12.293645 -0.05207213
67.172913 12.250982 -0.29046032
76.800758 12.314371 -0.24436516
77.87114 12.44435 -0.18490949
78.13401 12.269366 -0.19357406
78.676941 12.188029 -0.17874874
79.215569 12.145378 -0.15900792
79.756271 12.216195 -0.12666588
82.844444 12.469541 -0.45410156
84.426392 12.178841 -0.45662946
85.609192 12.150531 -0.44115853
91.337814 12.483475 -0.32393289
67.232117 12.823951 -0.34919548
75.365509 12.758053 -0.24033326
75.807907 12.888593 -0.48518935
76.174446 12.895855 -0.36237565
76.793159 12.844108 -0.2804935
77.068893 12.770348 -0.17822894
77.731567 12.688813 -0.16188847
78.264366 12.745557 -0.27482468
78.775032 12.651333 -0.48803559
81.045906 12.687662 -0.45803845
82.383804 12.859554 -0.424712
82.57106 12.539587 -0.45157796
83.112633 12.644996 -0.43455291
66.844193 13.033504 -0.095207535
67.211876 13.21098 -0.31433526
74.761108 13.243229 -0.23234791
75.232559 13.319946 -0.2696839
75.712906 13.24358 -0.25768876
76.201889 13.150846 -0.28584051
76.739365 13.196683 -0.13621727
77.273575 13.188276 -0.11832714
77.765289 13.383405 -0.075396501
78.059074 13.044538 -0.10613757
66.942955 13.737051 -0.003396058
67.255959 13.689137 -0.26241913
75.147095 13.78097 -0.26740879
75.785088 13.626408 -0.37284705
76.068405 13.54781 -0.40858227
76.61142 13.892807 -0.36754233
83.671181 13.680643 -0.33112645
87.031281 13.556149 -0.29781044
89.867615 13.642656 -0.24918485
67.255844 14.317549 -0.2856245
74.885048 14.356171 -0.30496004
75.194717 14.285743 -0.19721913
75.750748 14.363974 -0.30951661
77.449333 14.021973 -0.0035516024
67.357132 14.736869 -0.3448711
74.310287 14.730838 -0.24941334
74.636848 14.704855 -0.25703102
75.331604 14.942236 -0.23344004
75.663551 14.587681 -0.28114682
89.97464 14.972493 -0.12879336
67.243416 15.206755 -0.1018014
74.611069 15.094286 -0.20512384
75.164619 15.083726 -0.2133553
75.628204 15.192975 -0.20371985
90.019714 15.698813 -0.060517222
77.4505 17.438478 -0.35380077
75.97361 17.91358 -0.24872896
75.131439 18.431974 -0.15683654
76.236923 18.358145 -0.2106443
76.695503 18.052486 -0.26146871
77.127884 18.390163 -0.24138549
74.359451 18.955547 -0.063178837
74.746994 18.760662 -0.2241576
75.187599 18.754519 -0.12328794
75.756729 18.774086 -0.1454559
76.106789 18.585117 -0.1806637
74.295029 19.23597 -0.21949126
74.686546 19.195868 -0.1766315
75.008766 19.310555 -0.052958608
75.80439 19.164003 -0.1042394
76.061691 19.047436 -0.12795961
73.432022 19.631844 -0.35306999
74.205582 19.722366 -0.39482349
74.928726 19.753311 -0.43766183
75.370941 19.9725 -0.4472267
76.718887 19.57373 -0.097000122
73.924042 20.043373 -0.35050663
74.20369 20.131252 -0.36102194
74.895508 20.111757 -0.40620971
78.182434 20.021107 -0.10568744
74.469749 20.908905 -0.31381261
74.52758 20.812738 -0.32540551
75.06498 20.869282 -0.35465783
77.389542 20.628353 -0.0084547997
75.428688 21.512386 -0.32468063
74.182533 22.692606 -0.14796557
82.032837 24.42411 -0.49050027
82.85379 25.427574 -0.45901594
83.095322 25.138021 -0.49642655
64.60788 25.97854 -0.45691299
76.433975 25.926956 -0.024791718
79.46936 25.718719 -0.23147297
82.591194 25.56802 -0.43218338
83.155617 25.556458 -0.46661484
84.038406 25.878971 -0.49306619
90.119377 59.307877 -0.063423544
89.952446 59.629066 -0.034480453
69.21933 61.289772 -0.26559329
69.574524 61.108627 -0.2931428
69.215027 61.637402 -0.26054025
69.854721 61.629921 -0.30585575
70.71254 74.761902 -0.18677032
71.070969 74.83902 -0.21140933
67.966362 -56.607452 0.49219942
68.668465 -52.554565 0.35564065
69.916924 -51.242233 0.23988724
70.035332 -46.185394 0.12411976
85.946846 -31.057947 0.48604941
86.098274 -30.841845 0.47257686
50.288216 -29.472124 0.054668903
86.077423 -28.304195 0.35677266
86.103714 -27.700396 0.32908499
89.407089 -27.864481 0.2867136
86.216591 -27.13591 0.30183563
86.451447 -26.989775 0.29123902
89.305336 -26.794403 0.24434693
60.133781 -26.295889 0.49998116
86.481865 -26.307646 0.26086175
86.465141 -25.820597 0.23996782
86.445908 -25.485842 0.22580719
86.223114 -24.756205 0.19779396
86.373955 -23.4076 0.13864565
86.696243 -23.343487 0.13204491
74.135529 -22.29987 0.45976758
89.670128 -22.039558 0.060827971
89.687637 -21.722221 0.049536467
73.206985 -21.033539 0.43914771
89.702454 -21.299097 0.034673929
86.407562 -20.746458 0.030134758
89.720039 -20.786619 0.016970793
60.470295 -20.366156 0.36123931
60.56538 -20.415714 0.35301137
86.438278 -20.20928 0.0088179111
89.744965 -20.393332 0.0035820007
74.535461 -19.754431 0.30114651
73.819283 -19.386305 0.31646347
70.595474 -18.484426 0.45161581
70.333702 -17.813133 0.43092602
100.69102 -17.595669 0.081427455
58.627068 -17.138447 0.4927448
69.015793 -17.268995 0.49059796
58.755589 -16.661011 0.47238889
59.105541 -16.719404 0.43699527
69.939552 -16.738384 0.39659542
70.064819 -16.662886 0.38396788
99.271896 -16.955648 0.040348291
99.562843 -16.927919 0.046682596
72.160477 -16.207716 0.22989607
58.784557 -15.565434 0.45355952
74.096397 -15.569998 0.095744014
58.487656 -15.320515 0.4815917
69.193855 -15.029745 0.35178185
72.819679 -15.132298 0.13480751
73.297844 -15.203605 0.11429572
75.421387 -15.266476 0.022598743
75.532906 -15.369617 0.023581982
69.295464 -14.819868 0.33283293
69.652855 -14.898022 0.31245136
72.4347 -14.72736 0.13292396
72.522606 -14.763628 0.13020813
74.941345 -14.734448 0.014120857
60.923363 -14.179548 0.21241093
61.032379 -14.250908 0.20263261
69.585304 -14.400637 0.28904712
72.215828 -14.321095 0.1223743
58.290012 -13.074968 0.47416925
103.46837 -13.112122 0.13397431
58.05167 -12.636915 0.4954735
58.037086 -12.307936 0.49344468
71.374695 -12.099984 0.046508133
71.350731 -11.851175 0.034082294
71.481644 -11.411535 0.0021030903
79.208183 -11.032783 0.4887358
79.619041 -11.082157 0.49310747
106.35803 -10.033789 0.25661254
99.829117 -9.5584421 0.017988801
100.3399 -9.3110094 0.037128609
61.437534 -8.5281734 0.074930429
100.66241 -8.9630299 0.050722837
61.358204 -8.4731188 0.082676232
74.365128 -8.224822 0.31883579
74.713432 -8.1926117 0.30808365
75.097664 -8.0511599 0.28855085
75.116203 -7.9842072 0.28267324
104.72785 -5.5177116 0.26136136
100.0948 -5.0465956 0.073149204
99.158257 -4.2646742 0.047421694
104.72074 -3.7727864 0.30189002
98.721771 -3.2339478 0.048536301
99.856537 -3.078495 0.10140276
104.23022 -3.1959901 0.29483271
104.82631 -3.133863 0.32384229
105.13414 -3.0290222 0.34095836
98.217995 -2.8027792 0.03569603
98.934937 -2.9677353 0.063426018
99.278648 -2.9883833 0.078021288
99.660774 -2.8281193 0.098480105
100.34403 -2.5342216 0.13598585
98.980232 -2.3996696 0.07831192
99.196922 -2.2969098 0.090441465
66.866539 4.3410549 0.14103651
87.557281 4.3769126 0.41131234
84.970009 4.8706131 0.21146683
85.180122 4.6438041 0.22229178
86.460045 4.8237624 0.33398044
86.53479 4.8667507 0.3416276
87.718925 4.7390733 0.43651903
65.253128 5.1107445 0.48930466
84.84388 5.0728006 0.20713854
85.142456 5.2900515 0.23918754
66.740547 5.7772951 0.017313732
80.64463 5.9815774 0.3014133
84.492706 5.6220961 0.19613993
84.577599 5.6051631 0.20271456
85.244095 5.6436195 0.26034766
80.836517 6.375031 0.33444104
80.735329 6.7622151 0.33506182
82.72757 6.8583202 0.096044898
84.468872 6.5672698 0.23235285
65.959892 7.0581088 0.11518347
66.209793 7.1017814 0.034354329
81.383316 7.1511688 0.42848626
81.755165 7.2573442 0.031398736
82.015381 7.259316 0.20622785
82.942932 7.2860727 0.13549262
83.107246 7.1460829 0.14246249
64.765289 7.8155069 0.49937814
66.145721 7.8247962 0.032976549
80.378494 7.891098 0.34183088
80.536407 7.6762977 0.35000747
83.348244 7.6765084 0.19136584
84.097916 7.9147959 0.27017117
85.0158 7.9183064 0.35038245
85.74559 7.5404081 0.39214253
79.350449 8.4338808 0.2474317
79.772209 8.3323574 0.29286754
80.111885 8.1718435 0.32497102
84.376938 8.467658 0.32867825
84.865051 8.2731571 0.35890466
66.238625 8.5900831 0.023092469
79.299835 8.6778727 0.25716585
79.919861 8.8769026 0.34695005
80.583893 8.8997192 0.026318431
83.430412 8.7777786 0.26656246
84.333778 8.5730314 0.33178759
84.896729 8.6764011 0.3879683
66.189644 9.2158489 0.096459866
79.706131 9.091423 0.3364222
80.211746 9.2744446 0.13877472
84.289268 9.4037561 0.38622761
64.840958 9.7336807 0.44694239
79.483589 9.8948212 0.0077133775
79.530792 9.9347134 0.015208244
80.385757 9.8492804 0.48137644
80.591568 9.6537638 0.48958182
82.424332 9.7503386 0.25059634
82.802025 9.9948235 0.30316377
88.486725 9.7860317 0.10033035
66.746414 10.04589 0.04566028
79.904327 10.472815 0.48146152
80.253082 10.025805 0.48094964
80.962189 10.434108 0.18236256
81.056229 10.489846 0.1954695
82.638092 10.218623 0.30785298
84.201073 10.281893 0.44814444
84.777855 10.12754 0.48532093
86.810829 10.364471 0.057324648
66.326462 10.795487 0.061838944
66.747169 10.795243 0.072940119
67.04821 10.797287 0.015876006
79.086266 10.91509 0.069538355
79.671349 10.691553 0.47603762
80.041573 10.656006 0.1245186
80.846024 10.580795 0.18586913
82.691254 10.594898 0.34509015
83.200539 10.715536 0.39959252
83.744041 10.58588 0.4347769
85.74826 10.838045 0.040838718
67.069176 11.482038 0.04526775
78.460625 11.316235 0.060493708
78.53949 11.442085 0.080889404
79.123817 11.414276 0.49224079
79.538147 11.429271 0.16093284
80.145958 11.395944 0.20751166
80.934601 11.093748 0.24249995
81.064262 11.14255 0.25829694
83.663078 11.287571 0.49202979
84.658508 11.133129 0.010023534
87.444763 11.37698 0.17239511
66.390907 11.558007 0.048627768
66.785889 11.537801 0.079051621
67.105003 11.584007 0.1923721
77.336227 11.968758 0.36268884
77.839508 11.85675 0.40255314
78.246223 11.737917 0.38928545
78.566887 11.617254 0.24282233
79.4515 11.960915 0.2132833
79.670364 11.737586 0.20585853
81.524323 11.636526 0.34699023
82.730164 11.897865 0.47431862
84.434128 11.637571 0.043102503
66.864609 12.319778 0.11461854
67.071121 12.268034 0.071759515
76.310173 12.402715 0.3197858
76.854401 12.28503 0.1880843
77.344627 12.304775 0.1912749
77.75605 12.189715 0.10900619
78.169617 12.115139 0.33646256
79.209068 12.177197 0.21954267
79.626884 12.154119 0.24973798
80.372131 12.335857 0.33018708
91.382263 12.187095 0.44162571
67.154358 12.980825 0.034288645
74.851021 12.870854 0.079241939
75.247093 12.847341 0.064254977
75.869362 12.764361 0.1330386
76.21505 12.800264 0.22982267
76.786575 12.672071 0.21152098
77.175011 12.673692 0.40417343
77.598602 12.638049 0.15600729
85.613022 12.934418 0.22290158
89.875183 12.831006 0.42266726
90.253242 12.68045 0.42794585
66.898476 13.039226 0.077267416
67.170197 13.324724 0.23717186
74.344482 13.226173 0.043416381
74.830566 13.150427 0.055884093
75.335938 13.10961 0.242305
75.835609 13.107661 0.32020384
76.217842 13.090783 0.32755315
76.827393 13.146413 0.33215886
80.869438 13.081949 0.23741847
85.760818 13.061526 0.24247462
89.934837 13.290759 0.46805087
66.875504 13.753902 0.0063224733
67.26226 13.735165 0.3264077
74.737267 13.767904 0.26626247
75.217705 13.721924 0.20039311
75.62645 13.678158 0.47836626
80.169411 13.839258 0.073976994
83.472443 13.559122 0.18579924
83.75415 13.598543 0.20286536
84.833977 13.692298 0.26248592
85.604172 13.627737 0.29177701
66.976234 14.472904 0.10224295
67.136513 14.417987 0.099060729
74.631836 14.152658 0.21977854
75.324745 14.281251 0.22917303
75.516739 14.044265 0.24082792
76.091393 14.152534 0.28858861
86.525887 14.002337 0.37343538
67.263062 14.861743 0.32099712
74.412308 14.930331 0.064617708
74.756401 14.784182 0.11546496
75.207512 14.673494 0.079136133
75.542747 14.781047 0.26667675
67.25528 15.247492 0.28970596
74.627907 15.044436 0.084824085
75.43557 15.038135 0.41207966
76.486465 17.504276 0.49738121
76.626282 17.998249 0.15561795
82.246658 17.557323 0.068389416
74.951241 18.470879 0.25653172
76.459366 18.393068 0.21228373
76.623695 18.218155 0.18555844
77.020271 18.420254 0.20647538
74.913826 18.670427 0.2860553
75.990288 18.933884 0.29674739
76.285606 18.800432 0.27187812
76.653893 18.945389 0.2845962
74.467438 19.305656 0.39094251
74.808563 19.225449 0.36892363
75.044968 19.246586 0.3650229
75.673828 19.11269 0.32936159
77.026421 19.299948 0.32636285
73.763298 19.70664 0.47422597
74.358513 19.87545 0.31391317
74.746132 19.777866 0.40707532
75.848862 19.726372 0.41195929
76.215767 19.681894 0.39666772
73.884796 20.27566 0.11122398
74.207306 20.414013 0.11090302
74.724281 20.059418 0.49253929
75.287437 20.194431 0.49459684
76.672737 20.350168 0.23447177
78.068115 20.036861 0.40872025
73.791107 20.742554 0.16997564
74.311455 20.740545 0.14325669
78.463928 20.626373 0.4822886
73.45546 21.341946 0.25732088
73.683502 21.235079 0.23275283
74.022728 21.088343 0.19799805
74.924957 21.413246 0.19004917
75.030457 21.468758 0.19124556
73.362007 21.98172 0.33702469
74.867233 21.641624 0.21908718
73.362656 22.187338 0.36102286
73.61969 22.214399 0.35011336
79.910477 22.633896 0.11048138
80.020103 22.625439 0.10535872
79.542229 23.985229 0.27269197
81.025787 24.24807 0.24226308
83.189804 24.344475 0.17245948
80.081863 24.778801 0.33790392
82.255379 25.315323 0.31049347
83.176552 25.284109 0.27276212
82.855736 25.535458 0.31153679
76.341202 26.198137 0.0035062432
86.275574 28.050282 0.45480525
61.562649 65.112885 0.29845691
62.893749 65.600327 0.22025037
65.24942 67.527924 0.092321157
65.55851 67.514137 0.07143712
94.140457 70.476295 0.18603241
93.535294 70.836525 0.25055194
94.005646 70.762894 0.21073735
93.37542 71.065903 0.27427888
92.394745 71.767982 0.38439059
92.711647 71.61467 0.35251385
93.196686 71.575378 0.31341636
92.368286 72.343689 0.41509604
92.194183 72.555214 0.43892205
65.668716 75.14814 0.16938472
67.507347 -56.828606 0.53016186
67.300247 -56.12252 0.53026152
62.786316 -48.192688 0.70900702
62.421089 -46.437607 0.70222783
62.600777 -46.395309 0.6867795
59.249283 -43.632622 0.91218615
59.296928 -38.045807 0.79871273
59.485031 -37.955048 0.78028083
84.309303 -36.672699 0.8030355
57.442005 -35.418289 0.91786575
57.98978 -35.223961 0.86347032
84.37793 -35.360798 0.73556817
84.804085 -35.366859 0.72304398
85.186737 -34.10144 0.6502251
85.63546 -34.188644 0.64224172
60.172562 -32.521523 0.61405182
85.71891 -32.905056 0.57862908
86.019028 -32.826828 0.56742334
59.788242 -32.23336 0.64304781
60.066998 -32.321808 0.61966324
85.912842 -32.158051 0.53843069
59.858006 -31.929245 0.63098198
85.912262 -31.756472 0.5195508
85.929123 -31.403345 0.50259638
71.367752 -28.34384 0.95568085
57.13073 -27.822756 0.81363416
56.763855 -27.270803 0.84068024
55.983391 -26.347517 0.90429831
56.174541 -26.206411 0.88268626
56.408741 -25.944433 0.85484958
56.558884 -25.90645 0.83909321
72.401627 -25.681131 0.74306917
71.76416 -25.184175 0.75379562
72.457176 -25.078226 0.70616031
56.380463 -24.282236 0.8318522
56.613998 -24.16963 0.80624223
71.814056 -24.331186 0.70301175
66.109177 -22.161787 0.99098605
71.25795 -22.021648 0.60804784
71.869659 -21.705479 0.55289209
68.477432 -21.272791 0.75523198
68.580406 -21.315388 0.75005698
71.691483 -21.479746 0.55101585
71.159325 -20.602627 0.53472328
70.782249 -20.142805 0.5327394
65.897453 -19.758896 0.87511212
66.111038 -19.627102 0.84971493
57.15715 -19.099705 0.67492795
65.785385 -19.121655 0.84933996
57.069206 -18.901489 0.68147659
65.421089 -18.565062 0.8501792
65.352242 -18.337317 0.84367907
65.628708 -18.464901 0.8265329
63.798981 -17.516623 0.94180524
63.809669 -17.475906 0.9386102
64.273163 -17.252562 0.88259155
56.950508 -16.854109 0.66709149
57.004803 -16.969006 0.66265655
58.443085 -16.709949 0.50573623
64.156418 -16.897873 0.87441176
56.753242 -16.476494 0.68394876
75.878357 -15.844984 0.92742634
76.047905 -15.79875 0.91855669
57.562599 -15.253284 0.58041215
58.123913 -15.150853 0.51827019
75.265427 -15.356803 0.90424097
75.392014 -14.682375 0.84197605
75.736664 -14.688629 0.8323881
57.61404 -14.13977 0.56130672
72.190369 -14.391542 0.94581306
73.973175 -14.361309 0.86318326
74.162056 -14.485106 0.86682558
75.146652 -14.2288 0.8104248
75.914047 -14.398367 0.8026849
116.40166 -14.493124 0.59880447
57.630619 -13.633448 0.55360675
72.438065 -13.884272 0.8878293
73.824654 -13.844851 0.82348335
82.713402 -13.763532 0.70468116
57.770416 -13.271315 0.53397745
72.460663 -13.498598 0.85208642
72.674889 -13.414482 0.83441114
74.597015 -13.355535 0.75252211
82.816971 -13.422434 0.68260169
57.218647 -12.603292 0.58891463
69.894409 -12.552803 0.91218805
70.219917 -12.518303 0.88794744
70.623421 -12.557871 0.86650705
73.956192 -12.804064 0.72685242
74.030075 -12.785797 0.7225492
57.771046 -12.196856 0.52219278
69.96434 -12.457075 0.89883935
70.154854 -12.461865 0.88699675
72.821449 -12.444099 0.74101377
83.36705 -12.172199 0.60827219
72.22963 -11.733991 0.70496708
72.558342 -11.543905 0.67242819
83.481415 -11.810436 0.58743095
83.742882 -11.813257 0.59288502
93.674316 -11.687528 0.95852447
94.129471 -11.790804 0.98522687
57.241444 -11.170436 0.57297617
57.660999 -11.323851 0.52597398
70.373802 -11.458686 0.78156245
71.58078 -11.337231 0.70150912
72.835106 -11.164647 0.62654221
73.098778 -11.18895 0.61768627
79.475769 -11.301931 0.50894761
70.729271 -10.694268 0.69050241
71.288826 -10.803497 0.66880798
72.741669 -10.975048 0.61362946
94.750877 -10.80466 0.98738098
70.949203 -10.165524 0.62971449
71.073082 -10.420401 0.64590085
61.435959 -8.5153704 0.74038786
61.509518 -8.6606121 0.73806882
61.449986 -8.4802914 0.73707342
74.621483 -8.2396498 0.94112194
63.930809 -7.0404644 0.96759611
63.786892 -6.9294052 0.97605324
82.95752 -6.6176758 0.99900675
93.241737 -5.3386488 0.77896124
60.908142 -4.8369265 0.65314072
92.952339 -4.7275543 0.75246668
111.37868 -4.8164563 0.57823098
112.28159 -4.7034006 0.62354755
113.34014 -4.8650732 0.66809797
91.56237 -4.0956163 0.65269184
93.009171 -4.0677242 0.75009441
118.74733 -4.1337757 0.94961548
91.613373 -3.6699769 0.65162593
92.360321 -3.5658584 0.70174086
111.7366 -3.7377462 0.62798572
112.07678 -3.9986496 0.63571644
112.54733 -3.8118629 0.66395235
91.742905 -3.4896526 0.6587863
92.266426 -3.0654888 0.69217753
92.652229 -3.2619252 0.72020435
112.80649 -3.0721359 0.70112276
92.452484 -2.8157067 0.70428568
93.108078 -2.876174 0.75109768
111.84808 -2.9721527 0.65865612
112.6695 -2.7932072 0.70428157
92.62661 -2.2541602 0.71579629
113.00893 -2.4857645 0.73162699
86.787941 3.9127445 0.97784245
86.660248 4.0443544 0.96526921
89.044678 4.1713152 0.52872491
84.383804 4.9551744 0.71739179
84.902351 4.6966338 0.77282482
85.216896 4.6618652 0.80876303
64.67675 5.2708836 0.63583881
65.124191 5.1139431 0.52459633
84.353111 5.4277077 0.72506684
84.567421 5.1885757 0.74428707
80.587234 5.783174 0.70876193
80.719337 6.2896385 0.73720127
80.437683 6.7268729 0.70452195
80.655869 6.775084 0.74009061
81.797836 6.6409941 0.91297442
84.320908 6.5281782 0.75786871
89.25943 6.5981388 0.6468519
80.687645 7.0433044 0.75352806
81.291756 7.2299337 0.85525608
82.30368 7.1139822 0.53844023
82.603867 7.2648444 0.58175462
83.198944 7.4457397 0.6630441
84.235924 7.4049087 0.78747523
89.718674 7.3325109 0.72608089
64.738701 7.8664842 0.50961351
79.687012 7.8965626 0.63314414
80.28273 7.6724782 0.71609575
81.162704 7.866003 0.86443269
81.962318 7.5690279 0.97558343
82.412659 7.8808422 0.59004855
82.58448 7.8237829 0.6079092
78.990524 8.4673033 0.55548573
79.220612 8.2942781 0.58143526
79.525909 8.1739006 0.62264544
78.993996 8.5684509 0.56255007
79.057487 8.6567545 0.57870084
79.701797 8.7200518 0.68489552
80.308975 8.9518642 0.79764396
81.335106 8.9632692 0.52679956
81.540115 8.8708649 0.98675501
78.484016 9.2803593 0.8718031
78.527985 9.3777895 0.88879347
79.04628 9.461237 0.63870507
80.055481 9.0740814 0.76675212
81.369484 9.2716522 0.99008316
82.636856 9.4532528 0.72337943
64.854958 9.715683 0.61359203
78.734184 9.7502203 0.61590874
79.037567 9.5135174 0.64188135
80.776947 9.6078682 0.50837862
82.227722 9.6017675 0.68521899
82.56778 9.5859547 0.72553867
87.245743 9.9757004 0.68752694
78.795486 10.287635 0.67934722
80.253876 10.295439 0.50643879
80.627716 10.287792 0.65554893
83.684792 10.483259 0.9391253
86.024841 10.182598 0.59796238
78.48571 10.903966 0.7019546
78.63092 10.715049 0.70172477
79.232727 10.755633 0.79863918
79.759903 10.898319 0.50833809
80.180573 10.596253 0.72932959
81.434227 10.940426 0.71225691
81.520348 10.912187 0.7196579
65.352676 11.283573 0.735973
65.591438 11.458679 0.70574474
78.148155 11.348463 0.708179
78.562103 11.43533 0.78152788
79.191994 11.348048 0.74080628
79.876747 11.308988 0.76510292
80.440491 11.363365 0.6400218
80.949287 11.314672 0.69452691
81.103912 11.283762 0.70958167
81.731438 11.061958 0.76035345
83.542923 11.222775 0.99354315
84.383957 11.470329 0.570647
86.062943 11.006987 0.67131388
64.964783 11.618735 0.65986788
65.047203 11.732006 0.74586779
65.537712 11.600334 0.75497562
77.76757 11.724057 0.70497519
78.697418 11.681043 0.83515167
79.124908 11.560745 0.51005441
79.801788 11.581813 0.98647547
80.199112 11.706196 0.65213984
80.896027 11.75831 0.73880875
81.128021 11.569178 0.74406075
82.035904 11.693113 0.8647325
84.570206 11.586802 0.59763384
65.26754 12.144885 0.96490091
78.203339 12.154872 0.83189011
78.598167 12.491827 0.93989003
79.012604 12.048611 0.55899739
65.607719 12.608624 0.92504722
66.995773 12.618934 0.67098904
67.036652 12.703094 0.68860024
76.487183 12.968057 0.73608923
76.657219 12.860135 0.73798215
78.568291 12.7804 0.98146653
84.830536 12.708084 0.73349255
67.139542 13.334277 0.74653399
75.62114 13.443706 0.72553319
76.343231 13.292385 0.78000498
76.58165 13.389582 0.5096271
77.050446 13.206825 0.52316982
80.417618 13.38236 0.89684242
80.535912 13.286489 0.89602536
83.207947 13.470924 0.68831801
85.455772 13.135798 0.83099735
67.208992 13.865036 0.80887192
75.35289 13.744444 0.612481
75.775314 13.787916 0.75501931
76.347527 13.678587 0.76543003
76.516296 13.634279 0.54655409
78.338898 13.614241 0.71597797
78.500496 13.701422 0.74603879
80.49247 13.757446 0.95944786
80.545586 13.920001 0.98923481
83.29351 13.844052 0.73993427
83.829773 13.88725 0.78698397
67.194389 14.018706 0.85534549
75.262978 14.24861 0.64748716
75.829407 14.29476 0.86623347
76.142937 14.361363 0.84519482
78.07312 14.461025 0.83262146
65.759132 14.969597 0.82915783
67.184052 14.932892 0.66224653
75.262115 14.772844 0.66785753
75.734764 14.724544 0.77212828
76.229172 14.787053 0.73866379
65.886978 15.147822 0.84764922
66.198662 15.265398 0.82837296
67.205956 15.122574 0.68957359
76.698288 15.01621 0.81898499
75.949196 15.845267 0.57905942
76.052299 15.803737 0.57533491
75.533508 17.433649 0.86938471
76.271004 17.311052 0.86429739
76.679848 17.211517 0.85815042
75.725708 17.764427 0.63527274
76.325844 17.727699 0.61671382
74.362755 18.128872 0.99490666
74.739937 18.102861 0.99198699
75.182381 18.103775 0.59586954
75.74559 18.150745 0.60213017
76.351349 18.453806 0.65310675
76.607948 18.443691 0.65200412
74.595238 18.678865 0.70104229
75.333427 18.743179 0.70501161
75.905464 18.766178 0.70598859
77.446739 18.798521 0.7144357
73.434242 19.315603 0.83747447
73.67675 19.17474 0.80604386
74.258514 19.20772 0.80010277
74.795441 19.275732 0.80372018
75.227486 19.155973 0.77747977
77.146774 19.149773 0.77059388
73.31337 19.611509 0.89474249
73.936211 19.575583 0.87251484
74.179756 19.611269 0.87389845
74.938583 19.534723 0.8472411
76.310768 19.700056 0.86364263
76.891296 19.571699 0.84055042
73.365929 20.184706 0.56096452
73.658447 20.141275 0.54275537
74.240707 20.120747 0.51800156
73.34481 20.933184 0.67402047
77.32016 20.709114 0.51575017
78.505981 20.849331 0.5119735
73.149124 21.222784 0.72615534
78.380814 21.218498 0.5648756
78.592072 21.320858 0.5750041
73.332481 21.900238 0.82009006
77.319855 21.849129 0.67611861
77.87764 21.768391 0.65164036
72.953064 22.143293 0.87435502
73.246552 22.099537 0.85406351
79.832512 22.48147 0.71174216
77.752823 22.656162 0.77970636
78.203293 22.729248 0.77911091
77.794525 23.052259 0.83490539
56.085869 64.41925 0.6211679
56.655815 64.134758 0.58353269
57.115562 64.325394 0.55928779
91.634399 73.100235 0.50871205
91.801315 74.311653 0.55624259
57.906624 -56.838791 1.2904196
60.071754 -54.583183 1.0623529
59.357574 -54.271961 1.1157482
59.916924 -54.188423 1.0672021
59.749119 -53.896126 1.0752785
58.732445 -53.257301 1.1482215
54.632427 -51.36298 1.4731187
54.289841 -50.614105 1.4904966
54.516861 -50.535454 1.4681726
58.677994 -48.82151 1.0643873
53.470234 -41.212799 1.3988743
53.279278 -40.071129 1.3979981
53.615112 -40.159805 1.3667271
53.58445 -39.67511 1.3614435
52.723362 -39.240631 1.4389572
55.925453 -39.11264 1.1271212
56.250843 -39.227745 1.0986862
54.392784 -38.856026 1.2688363
54.711617 -38.712692 1.2355821
55.251163 -38.997131 1.1889
56.195518 -38.77726 1.0956728
55.82782 -38.209286 1.1201028
67.664825 -27.118269 1.1450413
68.588577 -27.171244 1.0791974
67.857262 -26.785059 1.1117139
68.170013 -26.602812 1.0780295
68.775764 -26.813084 1.0454451
63.881641 -25.803288 1.3851606
63.876106 -24.682676 1.3241892
86.348175 -24.369093 1.4841919
64.414001 -23.446829 1.2081161
64.523102 -23.439184 1.1980047
86.422623 -23.432833 1.4159245
86.653633 -23.343035 1.4104365
89.826431 -22.130707 1.3622974
65.267616 -21.251648 1.0119674
86.482895 -21.056396 1.2467451
89.867371 -21.292788 1.3093573
60.672516 -20.535652 1.4159604
74.855385 -20.628916 1.381943
86.493042 -20.73399 1.2243445
60.536594 -20.446905 1.4257803
86.533295 -20.443892 1.2045979
86.559967 -19.602978 1.1472032
89.90625 -19.872936 1.2215936
75.301025 -19.310692 1.2481208
86.563187 -19.390184 1.1327963
89.823647 -19.245169 1.1815434
75.512665 -18.904896 1.2048063
86.587921 -18.800623 1.0934478
89.827095 -18.743486 1.1514885
70.911095 -18.14949 1.3587794
73.315109 -18.059458 1.2206693
75.588631 -18.391024 1.1572531
86.756805 -18.347834 1.065846
87.073196 -18.32126 1.069068
89.844032 -18.281464 1.12456
72.885109 -17.621498 1.202023
73.214111 -17.985741 1.2188373
89.867462 -17.755533 1.0944964
89.888245 -17.223837 1.0645827
97.794693 -17.019192 1.3549826
98.204735 -17.027426 1.3746085
68.903519 -16.618227 1.3533068
89.913879 -16.714346 1.0366268
91.84375 -16.502588 1.0870695
92.340744 -16.788017 1.1189716
92.788933 -16.746346 1.1330911
93.310608 -16.694571 1.1500422
